ply
format ascii 1.0
comment pca lib
element vertex 977
property float x
property float y
property float z
property float nx
property float ny
property float nz
property uchar red
property uchar green
property uchar blue
property uchar alpha
end_header
0 0.48521 0.261493 0.812691 -0.577615 -0.0767725 255 255 255 255 
0 0.441698 0.230958 1 0 0 255 255 255 255 
0 0.468361 0.389778 1 0 0 255 255 255 255 
0 0.237863 0.429386 1 0 0 255 255 255 255 
0 0.44404 0.305741 1 0 0 255 255 255 255 
0 0.0943646 0.425172 1 0 0 255 255 255 255 
0 0.495628 0.248804 0.390764 -0.786169 -0.478792 255 255 255 255 
0 0.330385 0.207944 1 0 0 255 255 255 255 
0 0.390185 0.312873 1 0 0 255 255 255 255 
0 0.161472 0.135812 1 0 0 255 255 255 255 
0 0.148917 0.145282 1 0 0 255 255 255 255 
0 0.166075 0.20701 1 0 0 255 255 255 255 
0 0.183711 0.440134 1 0 0 255 255 255 255 
0 0.367002 0.0868355 1 0 0 255 255 255 255 
0 0.157219 0.218647 1 0 0 255 255 255 255 
0 0.269362 0.14243 1 0 0 255 255 255 255 
0 0.48014 0.21106 0.820256 -0.559659 0.118159 255 255 255 255 
0 0.373387 0.448501 1 0 0 255 255 255 255 
0 0.100838 0.111251 1 0 0 255 255 255 255 
0 0.377887 0.044878 1 0 0 255 255 255 255 
0 0.416992 0.472252 0.997552 -0.0260925 -0.064885 255 255 255 255 
0 0.47005 0.412621 1 0 0 255 255 255 255 
0 0.221056 0.300435 1 0 0 255 255 255 255 
0 0.120565 0.111241 1 0 0 255 255 255 255 
0 0.113307 0.282037 1 0 0 255 255 255 255 
0 0.247053 0.262225 1 0 0 255 255 255 255 
0 0.427319 0.413127 1 0 0 255 255 255 255 
0 0.469235 0.11103 1 0 0 255 255 255 255 
0 0.353262 0.336237 1 0 0 255 255 255 255 
0 0.197866 0.0104809 0.840154 0.171084 0.514657 255 255 255 255 
0 0.0548842 0.467228 1 0 0 255 255 255 255 
0 0.152911 0.0350242 1 0 0 255 255 255 255 
0 0.178288 0.0262981 1 0 0 255 255 255 255 
0 0.483526 0.279126 0.998304 -0.0575371 -0.00881621 255 255 255 255 
0 0.137549 0.361413 1 0 0 255 255 255 255 
0 0.324004 0.0545411 1 0 0 255 255 255 255 
0 0.333664 0.294054 1 0 0 255 255 255 255 
0 0.467162 0.0547202 1 0 0 255 255 255 255 
0 0.0944888 0.0877265 1 0 0 255 255 255 255 
0 0.165961 0.207796 1 0 0 255 255 255 255 
0 0.369763 0.413014 1 0 0 255 255 255 255 
0 0.470021 0.297082 1 0 0 255 255 255 255 
0 0.326141 0.439256 1 0 0 255 255 255 255 
0 0.408112 0.179403 1 0 0 255 255 255 255 
0 0.275493 0.105977 1 0 0 255 255 255 255 
0 0.189883 0.330377 1 0 0 255 255 255 255 
0 0.0732052 0.342794 1 0 0 255 255 255 255 
0 0.365401 0.251493 1 0 0 255 255 255 255 
0 0.369092 0.348926 1 0 0 255 255 255 255 
0 0.0306189 0.006641 0.870672 0.253192 0.421693 255 255 255 255 
0 0.210339 0.354623 1 0 0 255 255 255 255 
0 0.0611821 0.0440033 1 0 0 255 255 255 255 
0 0.148677 0.0283437 1 0 0 255 255 255 255 
0 0.0987235 0.243165 1 0 0 255 255 255 255 
0 0.11607 0.264685 1 0 0 255 255 255 255 
0 0.450962 0.485833 0.686013 0.126747 -0.716465 168 0 0 255 
0 0.177698 0.420983 1 0 0 255 255 255 255 
0 0.282915 0.00383936 0.717587 -0.121206 0.685841 255 255 255 255 
0 0.360239 0.191027 1 0 0 255 255 255 255 
0 0.183242 0.135731 1 0 0 255 255 255 255 
0 0.297004 0.373125 1 0 0 255 255 255 255 
0 0.466108 0.370209 0.989262 -0.136538 -0.0521408 255 255 255 255 
0 0.215919 0.331509 1 0 0 255 255 255 255 
0 0.121702 0.0850113 1 0 0 255 255 255 255 
0 0.180435 0.152321 1 0 0 255 255 255 255 
0 0.0916523 0.390774 1 0 0 255 255 255 255 
0 0.00694413 0.152834 0.870873 0.49126 0.015591 255 255 255 255 
0 0.434778 0.155621 1 0 0 255 255 255 255 
0 0.181178 0.0335013 1 0 0 255 255 255 255 
0 0.398786 0.297248 1 0 0 255 255 255 255 
0 0.298186 0.349748 1 0 0 255 255 255 255 
0 0.283082 0.475884 0.9989 -0.0152477 -0.0443507 255 255 255 255 
0 0.270731 0.0659965 1 0 0 255 255 255 255 
0 0.479724 0.130969 0.990158 -0.137493 -0.0261302 255 255 255 255 
0 0.257023 0.162965 1 0 0 255 255 255 255 
0 0.2667 0.0540275 1 0 0 255 255 255 255 
0 0.0360906 0.232808 1 0 0 255 255 255 255 
0 0.424237 0.25201 1 0 0 255 255 255 255 
0 0.0643174 0.0459394 1 0 0 255 255 255 255 
0 0.337021 0.244753 1 0 0 255 255 255 255 
0 0.198261 0.428673 1 0 0 255 255 255 255 
0 0.135527 0.205205 1 0 0 255 255 255 255 
0 0.0815076 0.0703049 1 0 0 255 255 255 255 
0 0.360826 0.262686 1 0 0 255 255 255 255 
0 0.103806 0.259612 1 0 0 255 255 255 255 
0 0.0599339 0.401992 1 0 0 255 255 255 255 
0 0.10936 0.343015 1 0 0 255 255 255 255 
0 0.377876 0.38009 1 0 0 255 255 255 255 
0 0.409012 0.3576 1 0 0 255 255 255 255 
0 0.0110594 0.166035 0.760084 0.647914 -0.0497963 255 255 255 255 
0 0.0205653 0.27776 0.990775 0.13484 -0.0135746 255 255 255 255 
0 0.220063 0.0566559 1 0 0 255 255 255 255 
0 0.0105682 0.1443 0.933286 0.330805 -0.139804 168 0 0 255 
0 0.308666 0.0748855 1 0 0 255 255 255 255 
0 0.190239 0.145687 1 0 0 255 255 255 255 
0 0.319638 0.3885 1 0 0 255 255 255 255 
0 0.0743599 0.455165 1 0 0 255 255 255 255 
0 0.0937048 0.155868 1 0 0 255 255 255 255 
0 0.0254703 0.45453 1 0 0 255 255 255 255 
0 0.418553 0.129276 1 0 0 255 255 255 255 
0 0.214142 0.478487 0.94424 -0.190329 -0.268674 255 255 255 255 
0 0.0312684 0.323502 0.999912 0.012196 0.00513683 255 255 255 255 
0 0.321503 0.409145 1 0 0 255 255 255 255 
0 0.203592 0.230514 1 0 0 255 255 255 255 
0 0.266744 0.214651 1 0 0 255 255 255 255 
0 0.39655 0.28731 1 0 0 255 255 255 255 
0 0.492411 0.116612 0.990158 -0.137493 -0.0261302 168 0 0 255 
0 0.343966 0.00297927 0.806824 -0.195195 0.557615 255 255 255 255 
0 0.260912 0.152631 1 0 0 255 255 255 255 
0 0.0778648 0.451151 1 0 0 255 255 255 255 
0 0.298318 0.397503 1 0 0 255 255 255 255 
0 0.339651 0.372678 1 0 0 255 255 255 255 
0 0.352668 0.433356 1 0 0 255 255 255 255 
0 0.0285452 0.378139 0.989232 0.145589 -0.0149875 255 255 255 255 
0 0.387886 0.447098 1 0 0 255 255 255 255 
0 0.00741516 0.102028 0.990669 0.12525 0.0537341 168 0 0 255 
0 0.425586 0.0386835 1 0 0 255 255 255 255 
0 0.42553 0.247088 1 0 0 255 255 255 255 
0 0.447828 0.129122 1 0 0 255 255 255 255 
0 0.477603 0.214573 0.975799 -0.204999 -0.0760992 255 255 255 255 
0 0.343773 0.374152 1 0 0 255 255 255 255 
0 0.0018824 0.336184 0.690681 0.690681 -0.21429 168 0 0 255 
0 0.490764 0.345848 0.930476 -0.336109 0.145754 255 255 255 255 
0 0.339163 0.251676 1 0 0 255 255 255 255 
0 0.498479 0.417028 0.724936 -0.688329 -0.0258804 168 0 0 255 
0 0.202827 0.296797 1 0 0 255 255 255 255 
0 0.314531 0.0424785 1 0 0 255 255 255 255 
0 0.169475 0.1672 1 0 0 255 255 255 255 
0 0.475834 0.19802 1 0 0 255 255 255 255 
0 0.0453386 0.36372 1 0 0 255 255 255 255 
0 0.145119 0.0527538 1 0 0 255 255 255 255 
0 0.465748 0.0707041 1 0 0 255 255 255 255 
0 0.0914373 0.391278 1 0 0 255 255 255 255 
0 0.317792 0.0392655 1 0 0 255 255 255 255 
0 0.0204002 0.295395 0.90428 0.340472 0.257599 255 255 255 255 
0 0.253838 0.364173 1 0 0 255 255 255 255 
0 0.169547 0.25572 1 0 0 255 255 255 255 
0 0.200357 0.160311 1 0 0 255 255 255 255 
0 0.101568 0.0395208 1 0 0 255 255 255 255 
0 0.411988 0.100048 1 0 0 255 255 255 255 
0 0.456549 0.114815 1 0 0 255 255 255 255 
0 0.396845 0.27108 1 0 0 255 255 255 255 
0 0.157294 0.0663199 1 0 0 255 255 255 255 
0 0.43828 0.133128 1 0 0 255 255 255 255 
0 0.26434 0.483619 0.946025 0.193677 -0.259857 255 255 255 255 
0 0.496848 0.409459 0.69606 -0.717969 0.00454044 168 0 0 255 
0 0.0363725 0.462597 1 0 0 255 255 255 255 
0 0.480163 0.12781 0.990158 -0.137493 -0.0261302 255 255 255 255 
0 0.353875 0.297955 1 0 0 255 255 255 255 
0 0.167075 0.374276 1 0 0 255 255 255 255 
0 0.0933498 0.420913 1 0 0 255 255 255 255 
0 0.238449 0.262897 1 0 0 255 255 255 255 
0 0.176634 0.438806 1 0 0 255 255 255 255 
0 0.423208 0.278202 1 0 0 255 255 255 255 
0 0.478327 0.335196 1 0 0 255 255 255 255 
0 0.37825 0.434876 1 0 0 255 255 255 255 
0 0.450011 0.275095 1 0 0 255 255 255 255 
0 0.205956 0.107305 1 0 0 255 255 255 255 
0 0.341415 0.144236 1 0 0 255 255 255 255 
0 0.240433 0.105755 1 0 0 255 255 255 255 
0 0.127855 0.237282 1 0 0 255 255 255 255 
0 0.0152139 0.164228 0.895463 0.443243 0.0410023 255 255 255 255 
0 0.199879 0.495377 0.932228 -0.139989 -0.333697 255 255 255 255 
0 0.292037 0.053754 1 0 0 255 255 255 255 
0 0.293332 0.459113 1 0 0 255 255 255 255 
0 0.42803 0.386682 1 0 0 255 255 255 255 
0 0.380026 0.166478 1 0 0 255 255 255 255 
0 0.149578 0.05666 1 0 0 255 255 255 255 
0 0.105284 0.0727864 1 0 0 255 255 255 255 
0 0.334862 0.0836112 1 0 0 255 255 255 255 
0 0.407982 0.213113 1 0 0 255 255 255 255 
0 0.0184871 0.357994 0.937033 0.327561 -0.12113 255 255 255 255 
0 0.488208 0.224443 0.544706 -0.791925 0.275952 255 255 255 255 
0 0.465299 0.329623 1 0 0 255 255 255 255 
0 0.36868 0.205732 1 0 0 255 255 255 255 
0 0.435378 0.496535 0.680677 -0.0816082 -0.728024 255 255 255 255 
0 0.443014 0.450592 1 0 0 255 255 255 255 
0 0.160763 0.142893 1 0 0 255 255 255 255 
0 0.445969 0.4528 1 0 0 255 255 255 255 
0 0.196647 0.239301 1 0 0 255 255 255 255 
0 0.411913 0.124676 1 0 0 255 255 255 255 
0 0.125982 0.291939 1 0 0 255 255 255 255 
0 0.291154 0.275561 1 0 0 255 255 255 255 
0 0.348599 0.396439 1 0 0 255 255 255 255 
0 0.348347 0.183462 1 0 0 255 255 255 255 
0 0.48005 0.25633 0.944662 -0.327274 0.0224699 255 255 255 255 
0 0.396574 0.498537 0.732022 -0.102648 -0.673504 168 0 0 255 
0 0.114323 0.384782 1 0 0 255 255 255 255 
0 0.22298 0.0796221 1 0 0 255 255 255 255 
0 0.214405 0.0916602 1 0 0 255 255 255 255 
0 0.285354 0.149784 1 0 0 255 255 255 255 
0 0.0881953 0.228368 1 0 0 255 255 255 255 
0 0.100376 0.248958 1 0 0 255 255 255 255 
0 0.371261 0.0463447 1 0 0 255 255 255 255 
0 0.201758 0.0679073 1 0 0 255 255 255 255 
0 0.285646 0.113671 1 0 0 255 255 255 255 
0 0.192583 0.411628 1 0 0 255 255 255 255 
0 0.405611 0.483738 0.911464 -0.296438 -0.285234 255 255 255 255 
0 0.187189 0.25421 1 0 0 255 255 255 255 
0 0.380176 0.0355357 1 0 0 255 255 255 255 
0 0.437671 0.360226 1 0 0 255 255 255 255 
0 0.291865 0.334246 1 0 0 255 255 255 255 
0 0.358763 0.406188 1 0 0 255 255 255 255 
0 0.219028 0.0817431 1 0 0 255 255 255 255 
0 0.48581 0.433433 0.838527 -0.52011 -0.16235 168 0 0 255 
0 0.173403 0.271165 1 0 0 255 255 255 255 
0 0.0832166 0.261599 1 0 0 255 255 255 255 
0 0.499533 0.183592 0.521077 -0.710994 -0.472194 168 0 0 255 
0 0.0105567 0.370794 0.898014 0.437385 0.0475999 255 255 255 255 
0 0.229937 0.212315 1 0 0 255 255 255 255 
0 0.438701 0.0155824 1 0 0 255 255 255 255 
0 0.325987 0.131284 1 0 0 255 255 255 255 
0 0.42721 0.231597 1 0 0 255 255 255 255 
0 0.115022 0.114399 1 0 0 255 255 255 255 
0 0.485807 0.495198 0.823483 -0.00046416 -0.567341 168 0 0 255 
0 0.149935 0.423478 1 0 0 255 255 255 255 
0 0.355424 0.4418 1 0 0 255 255 255 255 
0 0.257724 0.214187 1 0 0 255 255 255 255 
0 0.347988 0.476752 0.971774 -0.154906 -0.17793 255 255 255 255 
0 0.29593 0.333799 1 0 0 255 255 255 255 
0 0.410185 0.469333 1 0 0 255 255 255 255 
0 0.104963 0.493401 0.822589 -0.0171046 -0.568379 255 255 255 255 
0 0.230932 0.104496 1 0 0 255 255 255 255 
0 0.176994 0.241488 1 0 0 255 255 255 255 
0 0.47529 0.406931 1 0 0 255 255 255 255 
0 0.453804 0.413991 1 0 0 255 255 255 255 
0 0.422513 0.27979 1 0 0 255 255 255 255 
0 0.0452753 0.349723 1 0 0 255 255 255 255 
0 0.0113872 0.160297 0.926151 0.37714 0.00302958 255 255 255 255 
0 0.464122 0.497194 0.538648 0.0832949 -0.838403 255 255 255 255 
0 0.155495 0.114057 1 0 0 255 255 255 255 
0 0.420672 0.0109188 0.922884 0.191921 0.333843 255 255 255 255 
0 0.0558566 0.178396 1 0 0 255 255 255 255 
0 0.225105 0.403845 1 0 0 255 255 255 255 
0 0.155148 0.0210351 0.994895 0.0225815 0.0983539 255 255 255 255 
0 0.237644 0.0653333 1 0 0 255 255 255 255 
0 0.490368 0.342607 0.930476 -0.336109 0.145754 255 255 255 255 
0 0.0587348 0.2213 1 0 0 255 255 255 255 
0 0.447104 0.235729 1 0 0 255 255 255 255 
0 0.462788 0.422394 1 0 0 255 255 255 255 
0 0.142659 0.416592 1 0 0 255 255 255 255 
0 0.336385 0.0651726 1 0 0 255 255 255 255 
0 0.196382 0.38166 1 0 0 255 255 255 255 
0 0.414896 0.207769 1 0 0 255 255 255 255 
0 0.0419571 0.379018 1 0 0 255 255 255 255 
0 0.204963 0.197452 1 0 0 255 255 255 255 
0 0.493075 0.125636 0.908986 -0.30616 -0.282863 168 0 0 255 
0 0.208371 0.0489319 1 0 0 255 255 255 255 
0 0.304032 0.433476 1 0 0 255 255 255 255 
0 0.452777 0.45918 1 0 0 255 255 255 255 
0 0.454511 0.19042 1 0 0 255 255 255 255 
0 0.0245137 0.44488 1 0 0 255 255 255 255 
0 0.0330274 0.0832485 0.999358 0.035575 -0.00416555 255 255 255 255 
0 0.166179 0.480131 0.980762 0.0702739 -0.182117 255 255 255 255 
0 0.318977 0.128968 1 0 0 255 255 255 255 
0 0.402524 0.461637 1 0 0 255 255 255 255 
0 0.0455594 0.238909 1 0 0 255 255 255 255 
0 0.0268091 0.241941 1 0 0 255 255 255 255 
0 0.120569 0.441705 1 0 0 255 255 255 255 
0 0.44971 0.162526 1 0 0 255 255 255 255 
0 0.320724 0.154674 1 0 0 255 255 255 255 
0 0.359978 0.313799 1 0 0 255 255 255 255 
0 0.280309 0.0683494 1 0 0 255 255 255 255 
0 0.362731 0.0843413 1 0 0 255 255 255 255 
0 0.00182577 0.315508 0.707083 0.707083 0.00814744 255 255 255 255 
0 0.0435217 0.456337 1 0 0 255 255 255 255 
0 0.0059279 0.0680353 0.871666 0.468407 0.1442 255 255 255 255 
0 0.401217 0.0389553 1 0 0 255 255 255 255 
0 0.151284 0.0673961 1 0 0 255 255 255 255 
0 0.0190861 0.470261 0.936072 0.350091 0.0347343 255 255 255 255 
0 0.196364 0.421611 1 0 0 255 255 255 255 
0 0.431897 0.241923 1 0 0 255 255 255 255 
0 0.16052 0.458706 1 0 0 255 255 255 255 
0 0.483864 0.281089 0.976414 -0.211589 0.0429631 255 255 255 255 
0 0.400411 0.433575 1 0 0 255 255 255 255 
0 0.443615 0.221135 1 0 0 255 255 255 255 
0 0.0882481 0.303593 1 0 0 255 255 255 255 
0 0.034934 0.368557 1 0 0 255 255 255 255 
0 0.371943 0.397665 1 0 0 255 255 255 255 
0 0.452899 0.373768 1 0 0 255 255 255 255 
0 0.213172 0.49642 0.664223 -0.220816 -0.714176 255 255 255 255 
0 0.330106 0.2191 1 0 0 255 255 255 255 
0 0.0644555 0.231322 1 0 0 255 255 255 255 
0 0.258056 0.215739 1 0 0 255 255 255 255 
0 0.298719 0.277142 1 0 0 255 255 255 255 
0 0.186 0.495082 0.929411 -0.119294 -0.349235 168 0 0 255 
0 0.198752 0.117897 1 0 0 255 255 255 255 
0 0.237005 0.359272 1 0 0 255 255 255 255 
0 0.0766038 0.22087 1 0 0 255 255 255 255 
0 0.140361 0.477015 0.991343 -0.0582929 -0.117648 255 255 255 255 
0 0.154444 0.0839756 1 0 0 255 255 255 255 
0 0.19815 0.242693 1 0 0 255 255 255 255 
0 0.387569 0.233084 1 0 0 255 255 255 255 
0 0.11125 0.259512 1 0 0 255 255 255 255 
0 0.130749 0.0641483 1 0 0 255 255 255 255 
0 0.13328 0.343922 1 0 0 255 255 255 255 
0 0.0605685 0.463386 1 0 0 255 255 255 255 
0 0.0630218 0.125024 1 0 0 255 255 255 255 
0 0.194708 0.321077 1 0 0 255 255 255 255 
0 0.340763 0.493427 0.917277 -0.201963 -0.34324 168 0 0 255 
0 0.098219 0.0267635 0.990633 -0.0287519 0.133493 255 255 255 255 
0 0.488509 0.296971 0.960881 -0.260233 0.0947939 255 255 255 255 
0 0.144661 0.225515 1 0 0 255 255 255 255 
0 0.156243 0.221265 1 0 0 255 255 255 255 
0 0.446384 0.296604 1 0 0 255 255 255 255 
0 0.19828 0.100829 1 0 0 255 255 255 255 
0 0.380579 0.39643 1 0 0 255 255 255 255 
0 0.343521 0.268148 1 0 0 255 255 255 255 
0 0.129515 0.454771 1 0 0 255 255 255 255 
0 0.0276597 0.260264 0.988315 0.138168 0.0643736 255 255 255 255 
0 0.0189193 0.16094 0.994274 0.106846 0.00167904 255 255 255 255 
0 0.104185 0.0794878 1 0 0 255 255 255 255 
0 0.124325 0.167207 1 0 0 255 255 255 255 
0 0.204512 0.319034 1 0 0 255 255 255 255 
0 0.488284 0.0452751 0.925787 -0.377829 0.0127918 255 255 255 255 
0 0.31246 0.0865035 1 0 0 255 255 255 255 
0 0.0720386 0.30097 1 0 0 255 255 255 255 
0 0.383475 0.216699 1 0 0 255 255 255 255 
0 0.0264841 0.0397177 0.970958 0.238707 0.0160915 255 255 255 255 
0 0.437964 0.472868 0.991271 -0.0469655 -0.123191 255 255 255 255 
0 0.336321 0.136244 1 0 0 255 255 255 255 
0 0.0736971 0.216901 1 0 0 255 255 255 255 
0 0.0326745 0.417218 0.989396 0.144689 -0.0126622 255 255 255 255 
0 0.485049 0.162189 0.971652 -0.232139 0.0447721 168 0 0 255 
0 0.371989 0.0127085 0.925636 0.367032 0.0921144 255 255 255 255 
0 0.422453 0.390909 1 0 0 255 255 255 255 
0 0.173648 0.0266385 1 0 0 255 255 255 255 
0 0.470396 0.297974 1 0 0 255 255 255 255 
0 0.193846 0.174908 1 0 0 255 255 255 255 
0 0.117007 0.18213 1 0 0 255 255 255 255 
0 0.220183 0.429468 1 0 0 255 255 255 255 
0 0.268634 0.292222 1 0 0 255 255 255 255 
0 0.230437 0.152108 1 0 0 255 255 255 255 
0 0.00892125 0.256921 0.69603 0.69603 0.176305 255 255 255 255 
0 0.191826 0.446885 1 0 0 255 255 255 255 
0 0.22979 0.0281474 1 0 0 168 0 0 255 
0 0.0831295 0.303487 1 0 0 255 255 255 255 
0 0.245048 0.115804 1 0 0 255 255 255 255 
0 0.220705 0.230097 1 0 0 255 255 255 255 
0 0.277993 0.0926944 1 0 0 255 255 255 255 
0 0.242805 0.200446 1 0 0 255 255 255 255 
0 0.483603 0.416454 0.999799 -0.0193916 0.0050514 255 255 255 255 
0 0.227085 0.453999 1 0 0 255 255 255 255 
0 0.214427 0.420931 1 0 0 255 255 255 255 
0 0.128907 0.331434 1 0 0 255 255 255 255 
0 0.103061 0.349091 1 0 0 255 255 255 255 
0 0.260902 0.371695 1 0 0 255 255 255 255 
0 0.141312 0.491339 0.888498 -0.0703508 -0.453456 168 0 0 255 
0 0.0238028 0.150234 1 0 0 255 255 255 255 
0 0.24826 0.215629 1 0 0 255 255 255 255 
0 0.097119 0.478049 0.99708 0.0264624 -0.0716391 255 255 255 255 
0 0.243776 0.180249 1 0 0 255 255 255 255 
0 0.281536 0.488824 0.961806 0.0744397 -0.263418 255 255 255 255 
0 0.296053 0.00224133 0.907466 0.181165 0.379058 255 255 255 255 
0 0.218921 0.0740459 1 0 0 255 255 255 255 
0 0.0949357 0.461726 1 0 0 255 255 255 255 
0 0.274492 0.0785387 1 0 0 255 255 255 255 
0 0.37818 0.00157725 0.818023 0.555253 0.15011 168 0 0 255 
0 0.0325379 0.0926067 0.997314 0.0722193 0.0121816 255 255 255 255 
0 0.422508 0.161445 1 0 0 255 255 255 255 
0 0.424041 0.0255687 1 0 0 255 255 255 255 
0 0.010536 0.184943 0.786096 0.597965 -0.156494 255 255 255 255 
0 0.397263 0.151848 1 0 0 255 255 255 255 
0 0.176281 0.421066 1 0 0 255 255 255 255 
0 0.302082 0.424542 1 0 0 255 255 255 255 
0 0.136695 0.399201 1 0 0 255 255 255 255 
0 0.402591 0.380471 1 0 0 255 255 255 255 
0 0.0794497 0.184127 1 0 0 255 255 255 255 
0 0.369295 0.375502 1 0 0 255 255 255 255 
0 0.186369 0.0882159 1 0 0 255 255 255 255 
0 0.449548 0.281304 1 0 0 255 255 255 255 
0 0.0499422 0.22404 1 0 0 255 255 255 255 
0 0.359843 0.428122 1 0 0 255 255 255 255 
0 0.225618 0.392381 1 0 0 255 255 255 255 
0 0.0207286 0.148126 0.980097 0.180743 0.0821034 255 255 255 255 
0 0.0538263 0.44477 1 0 0 255 255 255 255 
0 0.173694 0.0643623 1 0 0 255 255 255 255 
0 0.129712 0.0709577 1 0 0 255 255 255 255 
0 0.216211 0.305994 1 0 0 255 255 255 255 
0 0.492024 0.0182927 0.616209 -0.77564 0.136636 255 255 255 255 
0 0.230535 0.128718 1 0 0 255 255 255 255 
0 0.417494 0.133126 1 0 0 255 255 255 255 
0 0.00918929 0.496944 -0.0256296 -0.0811323 -0.996374 255 255 255 255 
0 0.317254 0.378484 1 0 0 255 255 255 255 
0 0.372446 0.00362226 0.818023 0.555253 0.15011 168 0 0 255 
0 0.4667 0.321994 1 0 0 255 255 255 255 
0 0.284927 0.0166424 0.76147 -0.229123 0.606354 255 255 255 255 
0 0.0460345 0.14477 1 0 0 255 255 255 255 
0 0.444764 0.271652 1 0 0 255 255 255 255 
0 0.0371506 0.465493 1 0 0 255 255 255 255 
0 0.419778 0.0909769 1 0 0 255 255 255 255 
0 0.410262 0.0934724 1 0 0 255 255 255 255 
0 0.155339 0.0399746 1 0 0 255 255 255 255 
0 0.16443 0.37155 1 0 0 255 255 255 255 
0 0.345968 0.156454 1 0 0 255 255 255 255 
0 0.389843 0.0765036 1 0 0 255 255 255 255 
0 0.285172 0.307336 1 0 0 255 255 255 255 
0 0.20963 0.294362 1 0 0 255 255 255 255 
0 0.30428 0.0268835 0.998862 0.00393591 0.0475353 255 255 255 255 
0 0.172846 0.176726 1 0 0 255 255 255 255 
0 0.0305057 0.139546 1 0 0 255 255 255 255 
0 0.49872 0.315432 0.927817 -0.339265 -0.155094 255 255 255 255 
0 0.156189 0.0447541 1 0 0 255 255 255 255 
0 0.460202 0.100953 1 0 0 255 255 255 255 
0 0.316406 0.497353 0.236857 -0.0017156 -0.971543 255 255 255 255 
0 0.0664455 0.236184 1 0 0 255 255 255 255 
0 0.0883294 0.476708 0.997813 0.0211473 -0.0626298 255 255 255 255 
0 0.329657 0.243668 1 0 0 255 255 255 255 
0 0.0166825 0.494087 0.893146 0.43256 -0.123219 168 0 0 255 
0 0.115218 0.362651 1 0 0 255 255 255 255 
0 0.150541 0.00506093 0.6798 -0.241673 0.692435 168 0 0 255 
0 0.439154 0.435713 1 0 0 255 255 255 255 
0 0.312397 0.148784 1 0 0 255 255 255 255 
0 0.230074 0.116677 1 0 0 255 255 255 255 
0 0.175668 0.40292 1 0 0 255 255 255 255 
0 0.293403 0.206173 1 0 0 255 255 255 255 
0 0.0424662 0.292122 1 0 0 255 255 255 255 
0 0.0216058 0.198655 0.709069 0.665911 -0.231912 255 255 255 255 
0 0.336876 0.481808 0.982202 -0.114003 -0.149276 255 255 255 255 
0 0.299607 0.153283 1 0 0 255 255 255 255 
0 0.47916 0.366053 0.970108 -0.198161 -0.140084 255 255 255 255 
0 0.389467 0.0674897 1 0 0 255 255 255 255 
0 0.342761 0.219124 1 0 0 255 255 255 255 
0 0.311158 0.359443 1 0 0 255 255 255 255 
0 0.213211 0.426377 1 0 0 255 255 255 255 
0 0.222094 0.363751 1 0 0 255 255 255 255 
0 0.431437 0.161248 1 0 0 255 255 255 255 
0 0.299464 0.243835 1 0 0 255 255 255 255 
0 0.310033 0.0295388 0.99968 -0.0127093 0.0218902 255 255 255 255 
0 0.360512 0.4857 0.877342 0.0679887 -0.475026 168 0 0 255 
0 0.432459 0.153914 1 0 0 255 255 255 255 
0 0.191874 0.474925 0.994387 -0.034062 -0.100172 255 255 255 255 
0 0.446037 0.21348 1 0 0 255 255 255 255 
0 0.17358 0.282913 1 0 0 255 255 255 255 
0 0.195287 0.473187 0.993487 0.0745631 -0.0861672 255 255 255 255 
0 0.436195 0.174448 1 0 0 255 255 255 255 
0 0.33924 0.325662 1 0 0 255 255 255 255 
0 0.241937 0.182001 1 0 0 255 255 255 255 
0 0.0447862 0.0530955 1 0 0 255 255 255 255 
0 0.0414445 0.257997 1 0 0 255 255 255 255 
0 0.479472 0.263539 0.938715 -0.334962 -0.0813291 255 255 255 255 
0 0.121748 0.41091 1 0 0 255 255 255 255 
0 0.424787 0.421213 1 0 0 255 255 255 255 
0 0.154744 0.23482 1 0 0 255 255 255 255 
0 0.450752 0.0152562 0.636914 0.168987 0.752186 255 255 255 255 
0 0.22052 0.383211 1 0 0 255 255 255 255 
0 0.169171 0.412394 1 0 0 255 255 255 255 
0 0.358136 0.115207 1 0 0 255 255 255 255 
0 0.125873 0.0317157 1 0 0 255 255 255 255 
0 0.39812 0.321161 1 0 0 255 255 255 255 
0 0.004903 0.334315 0.981698 0.180646 -0.0602916 168 0 0 255 
0 0.495608 0.344143 0.930476 -0.336109 0.145754 255 255 255 255 
0 0.159978 0.237546 1 0 0 255 255 255 255 
0 0.0261445 0.204764 0.785816 0.515528 -0.34165 255 255 255 255 
0 0.290641 0.0675889 1 0 0 255 255 255 255 
0 0.462761 0.270113 1 0 0 255 255 255 255 
0 0.331127 0.0845094 1 0 0 255 255 255 255 
0 0.181023 0.255915 1 0 0 255 255 255 255 
0 0.0057221 0.335767 0.981698 0.180646 -0.0602916 168 0 0 255 
0 0.490734 0.456474 0.804847 -0.588044 -0.0801588 255 255 255 255 
0 0.351023 0.211254 1 0 0 255 255 255 255 
0 0.339684 0.0201939 0.994741 0.0335599 0.0967639 255 255 255 255 
0 0.123648 0.19782 1 0 0 255 255 255 255 
0 0.135401 0.249521 1 0 0 255 255 255 255 
0 0.229536 0.0335212 1 0 0 255 255 255 255 
0 0.0706822 0.234438 1 0 0 255 255 255 255 
0 0.367837 0.0662905 1 0 0 255 255 255 255 
0 0.0785818 0.0278145 0.992238 0.0427708 0.116764 255 255 255 255 
0 0.303836 0.104726 1 0 0 255 255 255 255 
0 0.232579 0.0944772 1 0 0 255 255 255 255 
0 0.172315 0.19534 1 0 0 255 255 255 255 
0 0.36459 0.00344261 0.845376 0.127134 0.518821 255 255 255 255 
0 0.279849 0.045613 1 0 0 255 255 255 255 
0 0.259357 0.285571 1 0 0 255 255 255 255 
0 0.38138 0.250091 1 0 0 255 255 255 255 
0 0.242045 0.232403 1 0 0 255 255 255 255 
0 0.461345 0.0817287 1 0 0 255 255 255 255 
0 0.252597 0.0849934 1 0 0 255 255 255 255 
0 0.279548 0.387998 1 0 0 255 255 255 255 
0 0.334515 0.00908397 0.732722 -0.437576 0.521196 255 255 255 255 
0 0.42152 0.405197 1 0 0 255 255 255 255 
0 0.243522 0.289356 1 0 0 255 255 255 255 
0 0.471487 0.322104 1 0 0 255 255 255 255 
0 0.317171 0.275324 1 0 0 255 255 255 255 
0 0.42683 0.0497494 1 0 0 255 255 255 255 
0 0.369801 0.0991456 1 0 0 255 255 255 255 
0 0.245089 0.234391 1 0 0 255 255 255 255 
0 0.102588 0.0249379 1 0 0 255 255 255 255 
0 0.280004 0.361945 1 0 0 255 255 255 255 
0 0.310509 0.161384 1 0 0 255 255 255 255 
0 0.112036 0.0525535 1 0 0 255 255 255 255 
0 0.393788 0.0733818 1 0 0 255 255 255 255 
0 0.134282 0.146385 1 0 0 255 255 255 255 
0 0.158375 0.413831 1 0 0 255 255 255 255 
0 0.0343834 0.49289 0.975785 -0.143731 -0.164877 168 0 0 255 
0 0.422915 0.455903 1 0 0 255 255 255 255 
0 0.398087 0.166437 1 0 0 255 255 255 255 
0 0.245259 0.369574 1 0 0 255 255 255 255 
0 0.488541 0.0624304 0.891969 -0.451319 -0.0264896 255 255 255 255 
0 0.144898 0.415372 1 0 0 255 255 255 255 
0 0.11218 0.0146985 0.985484 0.0428567 0.164268 255 255 255 255 
0 0.0145173 0.357269 0.894772 0.42308 -0.14278 255 255 255 255 
0 0.249089 0.117105 1 0 0 255 255 255 255 
0 0.382207 0.0290936 1 0 0 255 255 255 255 
0 0.479051 0.192716 0.992204 -0.110845 0.0569599 255 255 255 255 
0 0.190478 0.0910872 1 0 0 255 255 255 255 
0 0.245269 0.0842654 1 0 0 255 255 255 255 
0 0.164469 0.379551 1 0 0 255 255 255 255 
0 0.23065 0.322844 1 0 0 255 255 255 255 
0 0.293382 0.265034 1 0 0 255 255 255 255 
0 0.315734 0.216297 1 0 0 255 255 255 255 
0 0.220937 0.213821 1 0 0 255 255 255 255 
0 0.382734 0.466196 1 0 0 255 255 255 255 
0 0.0833953 0.371275 1 0 0 255 255 255 255 
0 0.0286267 0.228293 1 0 0 255 255 255 255 
0 0.286647 0.140806 1 0 0 255 255 255 255 
0 0.242992 0.301164 1 0 0 255 255 255 255 
0 0.498075 0.492081 0.777199 -0.608292 -0.161064 168 0 0 255 
0 0.418269 0.380282 1 0 0 255 255 255 255 
0 0.0211748 0.39732 0.929255 0.36939 0.00599347 255 255 255 255 
0 0.0729975 0.211653 1 0 0 255 255 255 255 
0 0.488407 0.318267 0.919861 -0.134119 -0.368602 255 255 255 255 
0 0.295918 0.152876 1 0 0 255 255 255 255 
0 0.197818 0.0265684 1 0 0 255 255 255 255 
0 0.475721 0.4912 0.786217 0.115306 -0.607098 168 0 0 255 
0 0.291602 0.291455 1 0 0 255 255 255 255 
0 0.207496 0.0125391 0.706556 -0.141321 0.693403 255 255 255 255 
0 0.00527576 0.0902302 0.98434 0.176271 -0.00185939 168 0 0 255 
0 0.478736 0.0886711 0.972099 -0.232364 -0.0321113 255 255 255 255 
0 0.461505 0.00736222 0.67984 -0.132026 0.721378 255 255 255 255 
0 0.316964 0.248152 1 0 0 255 255 255 255 
0 0.148169 0.0599558 1 0 0 255 255 255 255 
0 0.0493162 0.146244 1 0 0 255 255 255 255 
0 0.052037 0.467586 1 0 0 255 255 255 255 
0 0.0265261 0.0732118 0.994991 0.0973142 0.0228607 255 255 255 255 
0 0.364906 0.0995236 1 0 0 255 255 255 255 
0 0.284864 0.353313 1 0 0 255 255 255 255 
0 0.41779 0.0807824 1 0 0 255 255 255 255 
0 0.00618983 0.115608 0.990306 0.129426 0.0504208 168 0 0 255 
0 0.107351 0.48191 0.996136 0.00566747 -0.0876366 255 255 255 255 
0 0.106808 0.398953 1 0 0 255 255 255 255 
0 0.273365 0.314304 1 0 0 255 255 255 255 
0 0.411492 0.278641 1 0 0 255 255 255 255 
0 0.404534 0.390228 1 0 0 255 255 255 255 
0 0.367312 0.36604 1 0 0 255 255 255 255 
0 0.39759 0.184276 1 0 0 255 255 255 255 
0 0.114192 0.0457586 1 0 0 255 255 255 255 
0 0.244232 0.163508 1 0 0 255 255 255 255 
0 0.192003 0.296269 1 0 0 255 255 255 255 
0 0.131094 0.218529 1 0 0 255 255 255 255 
0 0.369481 0.496 0.610331 -0.214259 -0.76262 255 255 255 255 
0 0.318052 0.154345 1 0 0 255 255 255 255 
0 0.349313 0.235842 1 0 0 255 255 255 255 
0 0.235127 0.355503 1 0 0 255 255 255 255 
0 0.351451 0.342478 1 0 0 255 255 255 255 
0 0.337413 0.458258 1 0 0 255 255 255 255 
0 0.241431 0.110779 1 0 0 255 255 255 255 
0 0.272563 0.152923 1 0 0 255 255 255 255 
0 0.38942 0.177097 1 0 0 255 255 255 255 
0 0.043151 0.256732 1 0 0 255 255 255 255 
0 0.043137 0.440741 1 0 0 255 255 255 255 
0 0.441008 0.157329 1 0 0 255 255 255 255 
0 0.486499 0.18524 0.709773 -0.598098 -0.372157 168 0 0 255 
0 0.320837 0.178502 1 0 0 255 255 255 255 
0 0.481509 0.451931 0.912854 -0.406114 -0.0420485 255 255 255 255 
0 0.397031 0.350989 1 0 0 255 255 255 255 
0 0.447931 0.215083 1 0 0 255 255 255 255 
0 0.00533438 0.297244 0.668954 0.668954 0.324038 255 255 255 255 
0 0.450926 0.240462 1 0 0 255 255 255 255 
0 0.152747 0.302376 1 0 0 255 255 255 255 
0 0.0829401 0.490161 0.863849 0.057815 -0.500423 168 0 0 255 
0 0.260635 0.324371 1 0 0 255 255 255 255 
0 0.100939 0.0331973 1 0 0 255 255 255 255 
0 0.477295 0.490359 0.786217 0.115306 -0.607098 168 0 0 255 
0 0.210294 0.0204459 1 0 0 255 255 255 255 
0 0.247091 0.253431 1 0 0 255 255 255 255 
0 0.461187 0.188098 1 0 0 255 255 255 255 
0 0.41076 0.447686 1 0 0 255 255 255 255 
0 0.373338 0.231597 1 0 0 255 255 255 255 
0 0.126188 0.354847 1 0 0 255 255 255 255 
0 0.183528 0.023219 0.945954 0.112896 0.304015 255 255 255 255 
0 0.205836 0.131459 1 0 0 255 255 255 255 
0 0.238302 0.21117 1 0 0 255 255 255 255 
0 0.428703 0.189228 1 0 0 255 255 255 255 
0 0.451632 0.0814499 1 0 0 255 255 255 255 
0 0.491604 0.0345724 0.940345 -0.335945 -0.0537787 255 255 255 255 
0 0.0716104 0.252239 1 0 0 255 255 255 255 
0 0.358944 0.17255 1 0 0 255 255 255 255 
0 0.285436 0.336239 1 0 0 255 255 255 255 
0 0.162908 0.49573 0.909313 0.0760404 -0.409106 168 0 0 255 
0 0.356685 0.409999 1 0 0 255 255 255 255 
0 0.249162 0.317871 1 0 0 255 255 255 255 
0 0.0980973 0.159922 1 0 0 255 255 255 255 
0 0.265558 0.471435 0.983948 0.161269 -0.0764145 255 255 255 255 
0 0.39152 0.391746 1 0 0 255 255 255 255 
0 0.326282 0.0750479 1 0 0 255 255 255 255 
0 0.414965 0.0321178 1 0 0 255 255 255 255 
0 0.206507 0.153267 1 0 0 255 255 255 255 
0 0.243288 0.13521 1 0 0 255 255 255 255 
0 0.342495 0.19492 1 0 0 255 255 255 255 
0 0.21666 0.334099 1 0 0 255 255 255 255 
0 0.229493 0.28827 1 0 0 255 255 255 255 
0 0.0863374 0.0884365 1 0 0 255 255 255 255 
0 0.46082 0.371773 1 0 0 255 255 255 255 
0 0.424675 0.123728 1 0 0 255 255 255 255 
0 0.367504 0.28136 1 0 0 255 255 255 255 
0 0.0337271 0.116666 1 0 0 255 255 255 255 
0 0.0992313 0.131824 1 0 0 255 255 255 255 
0 0.276588 0.364789 1 0 0 255 255 255 255 
0 0.10326 0.168107 1 0 0 255 255 255 255 
0 0.256535 0.429541 1 0 0 255 255 255 255 
0 0.243155 0.171499 1 0 0 255 255 255 255 
0 0.461659 0.449662 1 0 0 255 255 255 255 
0 0.324766 0.204948 1 0 0 255 255 255 255 
0 0.0848719 0.167261 1 0 0 255 255 255 255 
0 0.399868 0.301531 1 0 0 255 255 255 255 
0 0.00135992 0.129361 0.69518 0.69518 -0.182892 168 0 0 255 
0 0.0898013 0.0876973 1 0 0 255 255 255 255 
0 0.217797 0.0506209 1 0 0 255 255 255 255 
0 0.459471 0.142472 1 0 0 255 255 255 255 
0 0.174349 0.326974 1 0 0 255 255 255 255 
0 0.423832 0.208076 1 0 0 255 255 255 255 
0 0.44364 0.0230635 1 0 0 255 255 255 255 
0 0.3399 0.220228 1 0 0 255 255 255 255 
0 0.387852 0.44316 1 0 0 255 255 255 255 
0 0.388335 0.144387 1 0 0 255 255 255 255 
0 0.372702 0.131491 1 0 0 255 255 255 255 
0 0.315886 0.334361 1 0 0 255 255 255 255 
0 0.0811529 0.140653 1 0 0 255 255 255 255 
0 0.0393085 0.166025 1 0 0 255 255 255 255 
0 0.307914 0.439176 1 0 0 255 255 255 255 
0 0.467556 0.309274 1 0 0 255 255 255 255 
0 0.0685369 0.0573574 1 0 0 255 255 255 255 
0 0.396971 0.286334 1 0 0 255 255 255 255 
0 0.107978 0.356442 1 0 0 255 255 255 255 
0 0.428806 0.282327 1 0 0 255 255 255 255 
0 0.183416 0.352639 1 0 0 255 255 255 255 
0 0.490403 0.127056 0.908986 -0.30616 -0.282863 168 0 0 255 
0 0.375702 0.330304 1 0 0 255 255 255 255 
0 0.347284 0.263554 1 0 0 255 255 255 255 
0 0.273464 0.235619 1 0 0 255 255 255 255 
0 0.407941 0.146166 1 0 0 255 255 255 255 
0 0.36711 0.223828 1 0 0 255 255 255 255 
0 0.480527 0.448263 0.894396 -0.403699 -0.192567 255 255 255 255 
0 0.36448 0.0198352 0.994047 -1.11959e-05 0.10895 255 255 255 255 
0 0.114287 0.172394 1 0 0 255 255 255 255 
0 0.459012 0.0818433 1 0 0 255 255 255 255 
0 0.481668 0.0275485 0.993866 -0.109929 0.0120874 255 255 255 255 
0 0.139201 0.378639 1 0 0 255 255 255 255 
0 0.313882 0.247179 1 0 0 255 255 255 255 
0 0.235081 0.242689 1 0 0 255 255 255 255 
0 0.029506 0.418497 0.982552 0.185462 0.0139891 255 255 255 255 
0 0.0953274 0.0199093 0.985919 0.00287045 0.167197 255 255 255 255 
0 0.0455526 0.471029 1 0 0 255 255 255 255 
0 0.350213 0.392836 1 0 0 255 255 255 255 
0 0.234584 0.123677 1 0 0 255 255 255 255 
0 0.128455 0.142525 1 0 0 255 255 255 255 
0 0.269843 0.495565 0.928853 0.139478 -0.343189 255 255 255 255 
0 0.366353 0.250369 1 0 0 255 255 255 255 
0 0.443827 0.230833 1 0 0 255 255 255 255 
0 0.270204 0.0581143 1 0 0 255 255 255 255 
0 0.403227 0.229216 1 0 0 255 255 255 255 
0 0.139958 0.384895 1 0 0 255 255 255 255 
0 0.256764 0.279158 1 0 0 255 255 255 255 
0 0.263534 0.070647 1 0 0 255 255 255 255 
0 0.0263371 0.498614 0.383849 -0.107675 -0.917097 168 0 0 255 
0 0.313336 0.0558431 1 0 0 255 255 255 255 
0 0.417111 0.408663 1 0 0 255 255 255 255 
0 0.0757524 0.462664 1 0 0 255 255 255 255 
0 0.379693 0.425965 1 0 0 255 255 255 255 
0 0.3555 0.114276 1 0 0 255 255 255 255 
0 0.0496424 0.483955 0.983352 0.0547392 -0.173267 255 255 255 255 
0 0.256801 0.319485 1 0 0 255 255 255 255 
0 0.47952 0.123154 0.990158 -0.137493 -0.0261302 255 255 255 255 
0 0.0698542 0.423347 1 0 0 255 255 255 255 
0 0.353987 0.340059 1 0 0 255 255 255 255 
0 0.481461 0.257214 0.944662 -0.327274 0.0224699 255 255 255 255 
0 0.0692745 0.121419 1 0 0 255 255 255 255 
0 0.142109 0.326039 1 0 0 255 255 255 255 
0 0.400577 0.405643 1 0 0 255 255 255 255 
0 0.396686 0.426914 1 0 0 255 255 255 255 
0 0.404257 0.210022 1 0 0 255 255 255 255 
0 0.482758 0.321368 0.988383 -0.106362 -0.108562 255 255 255 255 
0 0.118685 0.0585098 1 0 0 255 255 255 255 
0 0.284032 0.498378 0.942663 0.0128579 -0.333498 255 255 255 255 
0 0.484475 0.139532 0.914153 -0.405369 0.000411925 255 255 255 255 
0 0.112654 0.0341176 1 0 0 255 255 255 255 
0 0.123487 0.369456 1 0 0 255 255 255 255 
0 0.353603 0.103007 1 0 0 255 255 255 255 
0 0.49261 0.423457 0.949169 -0.272403 -0.157715 168 0 0 255 
0 0.0263539 0.346597 1 0 0 255 255 255 255 
0 0.263515 0.00781528 0.410334 0.111702 0.905068 255 255 255 255 
0 0.103811 0.33279 1 0 0 255 255 255 255 
0 0.129234 0.245919 1 0 0 255 255 255 255 
0 0.158829 0.0298115 1 0 0 255 255 255 255 
0 0.151562 0.0555146 1 0 0 255 255 255 255 
0 0.456726 0.0558192 1 0 0 255 255 255 255 
0 0.265536 0.439483 1 0 0 255 255 255 255 
0 0.377187 0.384221 1 0 0 255 255 255 255 
0 0.497993 0.161219 0.652486 -0.756336 0.0470999 168 0 0 255 
0 0.382599 0.482468 0.961528 0.025651 -0.273508 255 255 255 255 
0 0.300751 0.495253 0.279643 0.10794 -0.954017 255 255 255 255 
0 0.0165861 0.424238 0.797061 0.601001 -0.0590942 255 255 255 255 
0 0.364709 0.370189 1 0 0 255 255 255 255 
0 0.0272452 0.357319 1 0 0 255 255 255 255 
0 0.293646 0.0535991 1 0 0 255 255 255 255 
0 0.203915 0.0571608 1 0 0 255 255 255 255 
0 0.0614144 0.307726 1 0 0 255 255 255 255 
0 0.389951 0.190649 1 0 0 255 255 255 255 
0 0.0536454 0.0487793 1 0 0 255 255 255 255 
0 0.22046 0.205207 1 0 0 255 255 255 255 
0 0.104294 0.177186 1 0 0 255 255 255 255 
0 0.261027 0.36983 1 0 0 255 255 255 255 
0 0.116669 0.138214 1 0 0 255 255 255 255 
0 0.254052 0.114663 1 0 0 255 255 255 255 
0 0.299433 0.136651 1 0 0 255 255 255 255 
0 0.0971311 0.100185 1 0 0 255 255 255 255 
0 0.131904 0.113717 1 0 0 255 255 255 255 
0 0.0244228 0.496613 0.896298 0.119053 -0.427172 168 0 0 255 
0 0.483906 0.051668 0.980372 -0.195995 -0.0213729 255 255 255 255 
0 0.353932 0.277551 1 0 0 255 255 255 255 
0 0.105267 0.0578469 1 0 0 255 255 255 255 
0 0.334712 0.166681 1 0 0 255 255 255 255 
0 0.365573 0.224663 1 0 0 255 255 255 255 
0 0.35733 0.419218 1 0 0 255 255 255 255 
0 0.273442 0.0777903 1 0 0 255 255 255 255 
0 0.124426 0.377736 1 0 0 255 255 255 255 
0 0.254976 0.385452 1 0 0 255 255 255 255 
0 0.247566 0.371646 1 0 0 255 255 255 255 
0 0.0236663 0.00161809 0.870672 0.253192 0.421693 255 255 255 255 
0 0.486308 0.3231 0.966799 -0.178122 -0.183225 255 255 255 255 
0 0.138269 0.0834396 1 0 0 255 255 255 255 
0 0.423284 0.270173 1 0 0 255 255 255 255 
0 0.197157 0.447707 1 0 0 255 255 255 255 
0 0.266786 0.181063 1 0 0 255 255 255 255 
0 0.499375 0.120718 0.908986 -0.30616 -0.282863 168 0 0 255 
0.107843 0.419155 0.5 -0 -0 -1 255 255 255 255 
0.0252372 0.461297 0.5 -0 -0 -1 255 255 255 255 
0.0992687 0.318892 0.5 -0 -0 -1 255 255 255 255 
0.192902 0.418544 0.5 -0 -0 -1 255 255 255 255 
0.230215 0.0266515 0.5 -0 -0 -1 255 255 255 255 
0.225191 0.14408 0.5 -0 -0 -1 255 255 255 255 
0.0655068 0.37831 0.5 -0 -0 -1 255 255 255 255 
0.104066 0.0162783 0.5 0.000383578 0.168238 -0.985746 255 255 255 255 
0.246331 0.403418 0.5 -0.319906 0.144701 -0.936334 168 0 0 255 
0.130611 0.335708 0.5 -0 -0 -1 255 255 255 255 
0.0882607 0.339384 0.5 -0 -0 -1 255 255 255 255 
0.105987 0.155982 0.5 -0 -0 -1 255 255 255 255 
0.159181 0.119824 0.5 -0 -0 -1 255 255 255 255 
0.0615453 0.0702882 0.5 -0 -0 -1 255 255 255 255 
0.0315426 0.092207 0.5 -0 -0 -1 255 255 255 255 
0.117633 0.278771 0.5 -0 -0 -1 255 255 255 255 
0.00568111 0.28574 0.5 0.296242 0.055965 -0.953472 168 0 0 255 
0.120034 0.2099 0.5 -0 -0 -1 255 255 255 255 
0.052316 0.125871 0.5 -0 -0 -1 255 255 255 255 
0.0642217 0.0650609 0.5 -0 -0 -1 255 255 255 255 
0.0762613 0.0788252 0.5 -0 -0 -1 255 255 255 255 
0.10457 0.283536 0.5 -0 -0 -1 255 255 255 255 
0.228568 0.417272 0.5 -0 -0 -1 255 255 255 255 
0.149907 0.449798 0.5 -0 -0 -1 255 255 255 255 
0.160345 0.0610363 0.5 -0 -0 -1 255 255 255 255 
0.142753 0.497211 0.5 0.249272 -0.555966 -0.792947 168 0 0 255 
0.20021 0.497481 0.5 -0.583242 -0.169057 -0.794512 168 0 0 255 
0.0765963 0.218783 0.5 -0 -0 -1 255 255 255 255 
0.0586524 0.276283 0.5 -0 -0 -1 255 255 255 255 
0.144535 0.18039 0.5 -0 -0 -1 255 255 255 255 
0.184245 0.0243362 0.5 -0 -0 -1 255 255 255 255 
0.22958 0.379853 0.5 -0.155448 -0.137319 -0.978253 255 255 255 255 
0.155038 0.199229 0.5 -0 -0 -1 255 255 255 255 
0.0448761 0.414708 0.5 -0 -0 -1 255 255 255 255 
0.16255 0.218195 0.5 -0 -0 -1 255 255 255 255 
0.239884 0.477622 0.5 -0.121175 0.0886515 -0.988664 168 0 0 255 
0.14851 0.188909 0.5 -0 -0 -1 255 255 255 255 
0.130579 0.254156 0.5 -0 -0 -1 255 255 255 255 
0.0530905 0.0609725 0.5 -0 -0 -1 255 255 255 255 
0.101977 0.42687 0.5 -0 -0 -1 255 255 255 255 
0.0610044 0.489461 0.5 -0.122148 -0.281077 -0.95188 255 255 255 255 
0.212041 0.0224289 0.5 -0 -0 -1 255 255 255 255 
0.243471 0.077274 0.5 -0 -0 -1 255 255 255 255 
0.120606 0.104246 0.5 -0 -0 -1 255 255 255 255 
0.176779 0.0302828 0.5 -0 -0 -1 255 255 255 255 
0.142318 0.222048 0.5 -0 -0 -1 255 255 255 255 
0.0273095 0.243797 0.5 -0 -0 -1 255 255 255 255 
0.0509501 0.364695 0.5 -0 -0 -1 255 255 255 255 
0.221513 0.191652 0.5 -0 -0 -1 255 255 255 255 
0.139701 0.268125 0.5 -0 -0 -1 255 255 255 255 
0.204924 0.259171 0.5 -0 -0 -1 255 255 255 255 
0.122874 0.206868 0.5 -0 -0 -1 255 255 255 255 
0.22404 0.00690557 0.5 0.0427882 0.0744516 -0.996306 255 255 255 255 
0.230512 0.0542615 0.5 -0 -0 -1 255 255 255 255 
0.0339391 0.164979 0.5 -0 -0 -1 255 255 255 255 
0.240566 0.189887 0.5 -0 -0 -1 255 255 255 255 
0.0772198 0.405213 0.5 -0 -0 -1 255 255 255 255 
0.106158 0.141381 0.5 -0 -0 -1 255 255 255 255 
0.241244 0.453528 0.5 -0.147665 -0.0187996 -0.988859 168 0 0 255 
0.122813 0.336045 0.5 -0 -0 -1 255 255 255 255 
0.241905 0.0302628 0.5 -0 -0 -1 255 255 255 255 
0.0290462 0.0384293 0.5 -0 -0 -1 255 255 255 255 
0.13703 0.159993 0.5 -0 -0 -1 255 255 255 255 
0.201562 0.217085 0.5 -0 -0 -1 255 255 255 255 
0.175822 0.182527 0.5 -0 -0 -1 255 255 255 255 
0.242605 0.261493 0.5 -0.821445 -0.132424 -0.5547 255 255 255 255 
0.220849 0.230958 0.5 -0 -0 -1 255 255 255 255 
0.234181 0.389778 0.5 -0.419987 0.152312 -0.894657 255 255 255 255 
0.118932 0.429386 0.5 -0 -0 -1 255 255 255 255 
0.22202 0.305741 0.5 -0 -0 -1 255 255 255 255 
0.0471823 0.425172 0.5 -0 -0 -1 255 255 255 255 
0.247814 0.248804 0.5 -0.396408 -0.147214 -0.906195 255 255 255 255 
0.165193 0.207944 0.5 -0 -0 -1 255 255 255 255 
0.195092 0.312873 0.5 -0 -0 -1 255 255 255 255 
0.0807359 0.135812 0.5 -0 -0 -1 255 255 255 255 
0.0744587 0.145282 0.5 -0 -0 -1 255 255 255 255 
0.0830373 0.20701 0.5 -0 -0 -1 255 255 255 255 
0.0918557 0.440134 0.5 -0 -0 -1 255 255 255 255 
0.183501 0.0868355 0.5 -0 -0 -1 255 255 255 255 
0.0786097 0.218647 0.5 -0 -0 -1 255 255 255 255 
0.134681 0.14243 0.5 -0 -0 -1 255 255 255 255 
0.24007 0.21106 0.5 -0 -0 -1 255 255 255 255 
0.186694 0.448501 0.5 -0 -0 -1 255 255 255 255 
0.0504191 0.111251 0.5 -0 -0 -1 255 255 255 255 
0.188944 0.044878 0.5 -0 -0 -1 255 255 255 255 
0.208496 0.472252 0.5 -0 -0 -1 255 255 255 255 
0.235025 0.412621 0.5 -0 -0 -1 255 255 255 255 
0.110528 0.300435 0.5 -0 -0 -1 255 255 255 255 
0.0602824 0.111241 0.5 -0 -0 -1 255 255 255 255 
0.0566538 0.282037 0.5 -0 -0 -1 255 255 255 255 
0.123526 0.262225 0.5 -0 -0 -1 255 255 255 255 
0.213659 0.413127 0.5 -0 -0 -1 255 255 255 255 
0.234617 0.11103 0.5 -0 -0 -1 255 255 255 255 
0.176631 0.336237 0.5 -0 -0 -1 255 255 255 255 
0.0989328 0.0104809 0.5 0.174033 0.287059 -0.941971 168 0 0 255 
0.0274421 0.467228 0.5 -0 -0 -1 255 255 255 255 
0.0764553 0.0350242 0.5 -0 -0 -1 255 255 255 255 
0.0891439 0.0262981 0.5 -0 -0 -1 255 255 255 255 
0.241763 0.279126 0.5 -0.391201 0.0176837 -0.920135 255 255 255 255 
0.0687744 0.361413 0.5 -0 -0 -1 255 255 255 255 
0.162002 0.0545411 0.5 -0 -0 -1 255 255 255 255 
0.166832 0.294054 0.5 -0 -0 -1 255 255 255 255 
0.233581 0.0547202 0.5 -0 -0 -1 255 255 255 255 
0.0472444 0.0877265 0.5 -0 -0 -1 255 255 255 255 
0.0829805 0.207796 0.5 -0 -0 -1 255 255 255 255 
0.184881 0.413014 0.5 -0 -0 -1 255 255 255 255 
0.235011 0.297082 0.5 -0.0642029 -0.0316521 -0.997435 255 255 255 255 
0.16307 0.439256 0.5 -0 -0 -1 255 255 255 255 
0.204056 0.179403 0.5 -0 -0 -1 255 255 255 255 
0.137746 0.105977 0.5 -0 -0 -1 255 255 255 255 
0.0949417 0.330377 0.5 -0 -0 -1 255 255 255 255 
0.0366026 0.342794 0.5 -0 -0 -1 255 255 255 255 
0.1827 0.251493 0.5 -0 -0 -1 255 255 255 255 
0.184546 0.348926 0.5 -0 -0 -1 255 255 255 255 
0.0153094 0.006641 0.5 -0.0990695 -0.134996 -0.985881 255 255 255 255 
0.105169 0.354623 0.5 -0 -0 -1 255 255 255 255 
0.030591 0.0440033 0.5 -0 -0 -1 255 255 255 255 
0.0743383 0.0283437 0.5 -0 -0 -1 255 255 255 255 
0.0493618 0.243165 0.5 -0 -0 -1 255 255 255 255 
0.0580351 0.264685 0.5 -0 -0 -1 255 255 255 255 
0.225481 0.485833 0.5 0.0386208 -0.105695 -0.993648 168 0 0 255 
0.0888492 0.420983 0.5 -0 -0 -1 255 255 255 255 
0.141457 0.00383936 0.5 0.0899048 0.541376 -0.83596 168 0 0 255 
0.180119 0.191027 0.5 -0 -0 -1 255 255 255 255 
0.0916209 0.135731 0.5 -0 -0 -1 255 255 255 255 
0.148502 0.373125 0.5 -0 -0 -1 255 255 255 255 
0.233054 0.370209 0.5 -0.268418 0.0233917 -0.963019 255 255 255 255 
0.10796 0.331509 0.5 -0 -0 -1 255 255 255 255 
0.0608512 0.0850113 0.5 -0 -0 -1 255 255 255 255 
0.0902177 0.152321 0.5 -0 -0 -1 255 255 255 255 
0.0458261 0.390774 0.5 -0 -0 -1 255 255 255 255 
0.00347207 0.152834 0.5 0.507602 0.0940308 -0.856445 168 0 0 255 
0.217389 0.155621 0.5 -0 -0 -1 255 255 255 255 
0.090589 0.0335013 0.5 -0 -0 -1 255 255 255 255 
0.199393 0.297248 0.5 -0 -0 -1 255 255 255 255 
0.149093 0.349748 0.5 -0 -0 -1 255 255 255 255 
0.141541 0.475884 0.5 -0.00699694 -0.010773 -0.999918 255 255 255 255 
0.135365 0.0659965 0.5 -0 -0 -1 255 255 255 255 
0.239862 0.130969 0.5 -0 -0 -1 255 255 255 255 
0.128512 0.162965 0.5 -0 -0 -1 255 255 255 255 
0.13335 0.0540275 0.5 -0 -0 -1 255 255 255 255 
0.0180453 0.232808 0.5 -0 -0 -1 255 255 255 255 
0.212119 0.25201 0.5 -0 -0 -1 255 255 255 255 
0.0321587 0.0459394 0.5 -0 -0 -1 255 255 255 255 
0.16851 0.244753 0.5 -0 -0 -1 255 255 255 255 
0.0991304 0.428673 0.5 -0 -0 -1 255 255 255 255 
0.0677636 0.205205 0.5 -0 -0 -1 255 255 255 255 
0.0407538 0.0703049 0.5 -0 -0 -1 255 255 255 255 
0.180413 0.262686 0.5 -0 -0 -1 255 255 255 255 
0.0519031 0.259612 0.5 -0 -0 -1 255 255 255 255 
0.029967 0.401992 0.5 -0 -0 -1 255 255 255 255 
0.0546798 0.343015 0.5 -0 -0 -1 255 255 255 255 
0.188938 0.38009 0.5 -0 -0 -1 255 255 255 255 
0.204506 0.3576 0.5 -0 -0 -1 255 255 255 255 
0.0055297 0.166035 0.5 0.13456 0.00412046 -0.990897 168 0 0 255 
0.0102826 0.27776 0.5 0.295433 0.0537806 -0.953848 168 0 0 255 
0.110031 0.0566559 0.5 -0 -0 -1 255 255 255 255 
0.00528409 0.1443 0.5 0.173825 0.0481906 -0.983597 255 255 255 255 
0.154333 0.0748855 0.5 -0 -0 -1 255 255 255 255 
0.0951196 0.145687 0.5 -0 -0 -1 255 255 255 255 
0.159819 0.3885 0.5 -0 -0 -1 255 255 255 255 
0.0371799 0.455165 0.5 -0 -0 -1 255 255 255 255 
0.0468524 0.155868 0.5 -0 -0 -1 255 255 255 255 
0.0127351 0.45453 0.5 0.0797733 0.00260032 -0.99681 255 255 255 255 
0.209277 0.129276 0.5 -0 -0 -1 255 255 255 255 
0.107071 0.478487 0.5 -0.116681 -0.111388 -0.986903 255 255 255 255 
0.0156342 0.323502 0.5 0.0763236 -0.00939599 -0.997039 255 255 255 255 
0.160751 0.409145 0.5 -0 -0 -1 255 255 255 255 
0.101796 0.230514 0.5 -0 -0 -1 255 255 255 255 
0.133372 0.214651 0.5 -0 -0 -1 255 255 255 255 
0.198275 0.28731 0.5 -0 -0 -1 255 255 255 255 
0.246205 0.116612 0.5 -0 -0 -1 255 255 255 255 
0.171983 0.00297927 0.5 0.0469946 0.134244 -0.989833 255 255 255 255 
0.130456 0.152631 0.5 -0 -0 -1 255 255 255 255 
0.0389324 0.451151 0.5 -0 -0 -1 255 255 255 255 
0.149159 0.397503 0.5 -0 -0 -1 255 255 255 255 
0.169825 0.372678 0.5 -0 -0 -1 255 255 255 255 
0.176334 0.433356 0.5 -0 -0 -1 255 255 255 255 
0.0142726 0.378139 0.5 0.109117 -0.00331148 -0.994023 255 255 255 255 
0.193943 0.447098 0.5 -0 -0 -1 255 255 255 255 
0.00370758 0.102028 0.5 0.770205 0.0441334 -0.636267 255 255 255 255 
0.212793 0.0386835 0.5 -0 -0 -1 255 255 255 255 
0.212765 0.247088 0.5 -0 -0 -1 255 255 255 255 
0.223914 0.129122 0.5 -0 -0 -1 255 255 255 255 
0.238801 0.214573 0.5 -0 -0 -1 255 255 255 255 
0.171887 0.374152 0.5 -0 -0 -1 255 255 255 255 
0.0009412 0.336184 0.5 0.733102 -0.100851 -0.6726 168 0 0 255 
0.245382 0.345848 0.5 -0.673403 0.245934 -0.69717 168 0 0 255 
0.169582 0.251676 0.5 -0 -0 -1 255 255 255 255 
0.24924 0.417028 0.5 -0.381868 -0.077574 -0.920955 255 255 255 255 
0.101414 0.296797 0.5 -0 -0 -1 255 255 255 255 
0.157266 0.0424785 0.5 -0 -0 -1 255 255 255 255 
0.0847375 0.1672 0.5 -0 -0 -1 255 255 255 255 
0.237917 0.19802 0.5 -0 -0 -1 255 255 255 255 
0.0226693 0.36372 0.5 -0 -0 -1 255 255 255 255 
0.0725593 0.0527538 0.5 -0 -0 -1 255 255 255 255 
0.232874 0.0707041 0.5 -0 -0 -1 255 255 255 255 
0.0457187 0.391278 0.5 -0 -0 -1 255 255 255 255 
0.158896 0.0392655 0.5 -0 -0 -1 255 255 255 255 
0.0102001 0.295395 0.5 0.293817 0.112373 -0.949233 255 255 255 255 
0.126919 0.364173 0.5 -0 -0 -1 255 255 255 255 
0.0847735 0.25572 0.5 -0 -0 -1 255 255 255 255 
0.100179 0.160311 0.5 -0 -0 -1 255 255 255 255 
0.0507843 0.0395208 0.5 -0 -0 -1 255 255 255 255 
0.205994 0.100048 0.5 -0 -0 -1 255 255 255 255 
0.228274 0.114815 0.5 -0 -0 -1 255 255 255 255 
0.198423 0.27108 0.5 -0 -0 -1 255 255 255 255 
0.0786469 0.0663199 0.5 -0 -0 -1 255 255 255 255 
0.21914 0.133128 0.5 -0 -0 -1 255 255 255 255 
0.13217 0.483619 0.5 0.259445 -0.142017 -0.955259 255 255 255 255 
0.248424 0.409459 0.5 -0.329931 -0.138805 -0.933744 168 0 0 255 
0.0181863 0.462597 0.5 -0 -0 -1 255 255 255 255 
0.240081 0.12781 0.5 -0 -0 -1 255 255 255 255 
0.176938 0.297955 0.5 -0 -0 -1 255 255 255 255 
0.0835376 0.374276 0.5 -0 -0 -1 255 255 255 255 
0.0466749 0.420913 0.5 -0 -0 -1 255 255 255 255 
0.119224 0.262897 0.5 -0 -0 -1 255 255 255 255 
0.0883169 0.438806 0.5 -0 -0 -1 255 255 255 255 
0.211604 0.278202 0.5 -0 -0 -1 255 255 255 255 
0.239164 0.335196 0.5 -0.069871 0.00346837 -0.99755 255 255 255 255 
0.189125 0.434876 0.5 -0 -0 -1 255 255 255 255 
0.225006 0.275095 0.5 -0 -0 -1 255 255 255 255 
0.102978 0.107305 0.5 -0 -0 -1 255 255 255 255 
0.170708 0.144236 0.5 -0 -0 -1 255 255 255 255 
0.120217 0.105755 0.5 -0 -0 -1 255 255 255 255 
0.0639276 0.237282 0.5 -0 -0 -1 255 255 255 255 
0.00760697 0.164228 0.5 0.139819 -0.048936 -0.988967 168 0 0 255 
0.0999393 0.495377 0.5 -0.0281887 -0.372953 -0.927422 168 0 0 255 
0.146019 0.053754 0.5 -0 -0 -1 255 255 255 255 
0.146666 0.459113 0.5 -0 -0 -1 255 255 255 255 
0.214015 0.386682 0.5 -0 -0 -1 255 255 255 255 
0.190013 0.166478 0.5 -0 -0 -1 255 255 255 255 
0.0747892 0.05666 0.5 -0 -0 -1 255 255 255 255 
0.0526422 0.0727864 0.5 -0 -0 -1 255 255 255 255 
0.167431 0.0836112 0.5 -0 -0 -1 255 255 255 255 
0.203991 0.213113 0.5 -0 -0 -1 255 255 255 255 
0.00924357 0.357994 0.5 0.401221 0.0977316 -0.910752 255 255 255 255 
0.244104 0.224443 0.5 -0 -0 -1 255 255 255 255 
0.232649 0.329623 0.5 -0.371853 0.0179196 -0.928119 255 255 255 255 
0.18434 0.205732 0.5 -0 -0 -1 255 255 255 255 
0.217689 0.496535 0.5 0.00639443 -0.856401 -0.516272 168 0 0 255 
