ply
format ascii 1.0
comment pca lib
element vertex 825
property float x
property float y
property float z
property float nx
property float ny
property float nz
property uchar red
property uchar green
property uchar blue
property uchar alpha
end_header
0.266744 0.5 0.107326 -0.0550447 -0.997845 -0.0357015 255 255 255 255 
0.39655 0.5 0.143655 -0 -1 -0 255 255 255 255 
0.492411 0.5 0.0583062 -0.162538 -0.269269 -0.94925 255 255 255 255 
0.343966 0.5 0.00148964 -0.0388241 -0.409764 0.911365 168 0 0 255 
0.260912 0.5 0.0763156 -0 -1 -0 255 255 255 255 
0.0778648 0.5 0.225576 -0 -1 -0 255 255 255 255 
0.355726 0.557408 0.25616 -0.193252 0.29717 -0.935063 255 255 255 255 
0.339651 0.5 0.186339 -0 -1 -0 255 255 255 255 
0.352668 0.5 0.216678 -0 -1 -0 255 255 255 255 
0.0285452 0.5 0.189069 0.00589674 -0.941291 0.337546 255 255 255 255 
0.387886 0.5 0.223549 -0.011253 -0.957539 0.288084 255 255 255 255 
0.00741516 0.5 0.0510141 0.889 -0.455913 -0.0426935 255 255 255 255 
0.425586 0.5 0.0193418 0.0279858 -0.999551 -0.0107527 255 255 255 255 
0.42553 0.5 0.123544 -0 -1 -0 255 255 255 255 
0.447828 0.5 0.0645609 -0 -1 -0 255 255 255 255 
0.477603 0.5 0.107286 -0.392147 -0.893014 0.220785 255 255 255 255 
0.362094 0.518321 0.205397 0.370964 -0.91813 0.139365 255 255 255 255 
0.0018824 0.5 0.168092 0.395819 -0.902334 -0.17065 255 255 255 255 
0.490764 0.5 0.172924 -0.290111 -0.936436 -0.197291 168 0 0 255 
0.339163 0.5 0.125838 -0.20758 -0.977916 0.0242939 255 255 255 255 
0.498479 0.5 0.208514 -0.34423 -0.934605 -0.0895528 168 0 0 255 
0.202827 0.5 0.148399 -0 -1 -0 255 255 255 255 
0.314531 0.5 0.0212393 -0.0384588 -0.997597 0.0576352 255 255 255 255 
0.169475 0.5 0.0835999 -0 -1 -0 255 255 255 255 
0.475834 0.5 0.0990101 -0.222644 -0.918917 0.325607 255 255 255 255 
0.0453386 0.5 0.18186 -0.179114 -0.957291 0.226964 255 255 255 255 
0.184914 0.539796 0.0661724 0.688568 -0.0397243 -0.724083 168 0 0 255 
0.465748 0.5 0.0353521 -0 -1 -0 255 255 255 255 
0.0914373 0.5 0.195639 -0 -1 -0 255 255 255 255 
0.317792 0.5 0.0196327 -0.0384588 -0.997597 0.0576352 255 255 255 255 
0.0204002 0.5 0.147697 0.0142421 -0.999835 -0.0112987 255 255 255 255 
0.253838 0.5 0.182087 -0 -1 -0 255 255 255 255 
0.169547 0.5 0.12786 -0 -1 -0 255 255 255 255 
0.200357 0.5 0.0801557 -0 -1 -0 255 255 255 255 
0.101568 0.5 0.0197604 -0.00651821 -0.999975 -0.00283044 255 255 255 255 
0.411988 0.5 0.0500239 0.118599 -0.992192 -0.038583 255 255 255 255 
0.496224 0.539675 0.0970826 -0.776513 0.0138097 -0.62995 168 0 0 255 
0.396845 0.5 0.13554 -0 -1 -0 255 255 255 255 
0.157294 0.5 0.03316 -0 -1 -0 255 255 255 255 
0.43828 0.5 0.0665641 -0.00535352 -0.993768 -0.111336 255 255 255 255 
0.26434 0.5 0.241809 0.350996 -0.819389 -0.453215 255 255 255 255 
0.496848 0.5 0.204729 -0.34423 -0.934605 -0.0895528 168 0 0 255 
0.0363725 0.5 0.231299 -0 -1 -0 255 255 255 255 
0.480163 0.5 0.0639049 -0 -1 -0 255 255 255 255 
0.353875 0.5 0.148978 -0 -1 -0 255 255 255 255 
0.167075 0.5 0.187138 -0 -1 -0 255 255 255 255 
0.148918 0.555569 0.266025 -0.0839934 -0.180112 0.980053 168 0 0 255 
0.238449 0.5 0.131448 -0 -1 -0 255 255 255 255 
0.176634 0.5 0.219403 -0 -1 -0 255 255 255 255 
0.423208 0.5 0.139101 -0 -1 -0 255 255 255 255 
0.478327 0.5 0.167598 -0 -1 -0 255 255 255 255 
0.37825 0.5 0.217438 -0 -1 -0 255 255 255 255 
0.450011 0.5 0.137548 -0 -1 -0 255 255 255 255 
0.205956 0.5 0.0536526 -0 -1 -0 255 255 255 255 
0.341415 0.5 0.0721182 -0 -1 -0 255 255 255 255 
0.240433 0.5 0.0528776 -0 -1 -0 255 255 255 255 
0.17536 0.547505 0.166146 0.725073 0.152726 0.671524 255 255 255 255 
0.0152139 0.5 0.0821138 0.393934 -0.919113 0.00693661 255 255 255 255 
0.199879 0.5 0.247688 -0 -1 -0 255 255 255 255 
0.292037 0.5 0.026877 -0 -1 -0 255 255 255 255 
0.293332 0.5 0.229556 0.091425 -0.995453 -0.0267159 255 255 255 255 
0.42803 0.5 0.193341 -0 -1 -0 255 255 255 255 
0.380026 0.5 0.0832391 -0 -1 -0 255 255 255 255 
0.149578 0.5 0.02833 -0 -1 -0 255 255 255 255 
0.105284 0.5 0.0363932 -0.0700687 -0.988893 -0.131078 255 255 255 255 
0.334862 0.5 0.0418056 -0 -1 -0 255 255 255 255 
0.433143 0.525161 0.131717 0.876685 -0.479636 0.0370461 255 255 255 255 
0.0184871 0.5 0.178997 0.00853595 -0.999941 -0.00669986 255 255 255 255 
0.488208 0.5 0.112222 -0.341279 -0.937227 0.0716573 255 255 255 255 
0.465299 0.5 0.164812 -0.74017 -0.667349 -0.0824254 255 255 255 255 
0.36868 0.5 0.102866 -0 -1 -0 255 255 255 255 
0.435378 0.5 0.248268 0.235782 0.50501 -0.830284 255 255 255 255 
0.443014 0.5 0.225296 -0.131767 -0.977923 -0.162188 255 255 255 255 
0.160763 0.5 0.0714463 -0.00225866 -0.909881 0.414863 168 0 0 255 
0.445969 0.5 0.2264 -0.307894 -0.942941 -0.126739 255 255 255 255 
0.196647 0.5 0.11965 -0 -1 -0 255 255 255 255 
0.413815 0.501901 0.0642395 0.0887286 -0.994753 -0.0509192 255 255 255 255 
0.125982 0.5 0.14597 -0 -1 -0 255 255 255 255 
0.291154 0.5 0.13778 -0 -1 -0 255 255 255 255 
0.348599 0.5 0.198219 -0 -1 -0 255 255 255 255 
0.348347 0.5 0.0917308 -0 -1 -0 255 255 255 255 
0.48005 0.5 0.128165 -0.0218374 -0.993995 0.107223 255 255 255 255 
0.396574 0.5 0.249269 -0.106736 -0.627385 -0.771359 255 255 255 255 
0.114323 0.5 0.192391 -0 -1 -0 255 255 255 255 
0.22298 0.5 0.039811 -0 -1 -0 255 255 255 255 
0.214405 0.5 0.0458301 -0 -1 -0 255 255 255 255 
0.328613 0.543259 0.118151 -0.686073 0.117326 -0.718011 168 0 0 255 
0.0881953 0.5 0.114184 -0 -1 -0 255 255 255 255 
0.100376 0.5 0.124479 -0 -1 -0 255 255 255 255 
0.371261 0.5 0.0231723 -0 -1 -0 255 255 255 255 
0.201758 0.5 0.0339536 -0 -1 -0 255 255 255 255 
0.285646 0.5 0.0568357 -0 -1 -0 255 255 255 255 
0.192583 0.5 0.205814 -0 -1 -0 255 255 255 255 
0.405611 0.5 0.241869 0.0149598 -0.986179 -0.165006 255 255 255 255 
0.187189 0.5 0.127105 -0 -1 -0 255 255 255 255 
0.380176 0.5 0.0177679 -0 -1 -0 255 255 255 255 
0.487755 0.550084 0.230196 -0.941428 0.293344 -0.166323 255 255 255 255 
0.291865 0.5 0.167123 -0 -1 -0 255 255 255 255 
0.358763 0.5 0.203094 0.370964 -0.91813 0.139365 255 255 255 255 
0.219028 0.5 0.0408716 -0 -1 -0 255 255 255 255 
0.48581 0.5 0.216716 -0.0361939 -0.999337 -0.00396309 255 255 255 255 
0.173403 0.5 0.135582 -0 -1 -0 255 255 255 255 
0.0832166 0.5 0.130799 -0 -1 -0 255 255 255 255 
0.499533 0.5 0.0917961 -0.665578 -0.600615 -0.44302 168 0 0 255 
0.0105567 0.5 0.185397 0.255448 -0.943306 -0.211945 168 0 0 255 
0.229937 0.5 0.106158 -0 -1 -0 255 255 255 255 
0.471853 0.533152 0.0409434 -0.563857 0.00253949 -0.825868 255 255 255 255 
0.325987 0.5 0.0656421 -0 -1 -0 255 255 255 255 
0.42721 0.5 0.115799 -0 -1 -0 255 255 255 255 
0.115022 0.5 0.0571994 0.0595238 -0.991734 0.113673 255 255 255 255 
0.485807 0.5 0.247599 0.0244641 0.130036 -0.991207 255 255 255 255 
0.149935 0.5 0.211739 -0.030899 -0.999057 0.03052 255 255 255 255 
0.355424 0.5 0.2209 -0 -1 -0 255 255 255 255 
0.257724 0.5 0.107093 -0.033447 -0.999026 -0.0287948 255 255 255 255 
0.347988 0.5 0.238376 -0.130957 -0.979845 -0.150843 255 255 255 255 
0.29593 0.5 0.166899 -0 -1 -0 255 255 255 255 
0.415532 0.505347 0.240013 -0.260414 -0.888036 -0.378914 255 255 255 255 
0.104963 0.5 0.246701 0.153188 -0.979043 0.134191 255 255 255 255 
0.230932 0.5 0.0522482 -0 -1 -0 255 255 255 255 
0.176994 0.5 0.120744 -0 -1 -0 255 255 255 255 
0.47529 0.5 0.203465 -0 -1 -0 255 255 255 255 
0.453804 0.5 0.206996 -0 -1 -0 255 255 255 255 
0.422513 0.5 0.139895 -0 -1 -0 255 255 255 255 
0.0452753 0.5 0.174862 -0.0757467 -0.952393 -0.295314 255 255 255 255 
0.0113872 0.5 0.0801486 0.34679 -0.936161 -0.0577833 255 255 255 255 
0.464122 0.5 0.248597 -0.00827137 -0.304638 -0.952432 255 255 255 255 
0.19072 0.535225 0.0922531 0.828507 0.0100335 -0.559889 255 255 255 255 
0.420672 0.5 0.00545941 0.0823388 -0.908841 0.408935 255 255 255 255 
0.0558566 0.5 0.0891982 -0 -1 -0 255 255 255 255 
0.225105 0.5 0.201922 0.421428 -0.906349 0.0305079 255 255 255 255 
0.155148 0.5 0.0105175 0.0142366 -0.992688 0.11987 255 255 255 255 
0.237644 0.5 0.0326666 -0 -1 -0 255 255 255 255 
0.490368 0.5 0.171303 -0.290111 -0.936436 -0.197291 168 0 0 255 
0.0587348 0.5 0.11065 -0 -1 -0 255 255 255 255 
0.447104 0.5 0.117864 -0 -1 -0 255 255 255 255 
0.462788 0.5 0.211197 -0 -1 -0 255 255 255 255 
0.145467 0.502807 0.211103 -0.00316067 -0.999974 0.00649382 255 255 255 255 
0.336385 0.5 0.0325863 -0 -1 -0 255 255 255 255 
0.196382 0.5 0.19083 -0.0273794 -0.996631 -0.0773089 255 255 255 255 
0.414896 0.5 0.103885 -0 -1 -0 255 255 255 255 
0.0419571 0.5 0.189509 -0.102336 -0.994456 0.0241987 255 255 255 255 
0.204963 0.5 0.0987261 -0 -1 -0 255 255 255 255 
0.493075 0.5 0.0628178 -0.404804 -0.509194 -0.75951 255 255 255 255 
0.208371 0.5 0.024466 -0 -1 -0 255 255 255 255 
0.304032 0.5 0.216738 0.104252 -0.989627 0.0988448 255 255 255 255 
0.452777 0.5 0.22959 -0.0100086 -0.99974 -0.0205092 255 255 255 255 
0.473295 0.518784 0.113994 -0.898507 -0.324586 0.295516 255 255 255 255 
0.0245137 0.5 0.22244 -0 -1 -0 255 255 255 255 
0.0330274 0.5 0.0416242 -0 -1 -0 255 255 255 255 
0.166179 0.5 0.240065 -0 -1 -0 255 255 255 255 
0.318977 0.5 0.0644838 -0 -1 -0 255 255 255 255 
0.402524 0.5 0.230818 0.316484 -0.945177 -0.0804884 255 255 255 255 
0.0455594 0.5 0.119455 -0 -1 -0 255 255 255 255 
0.0268091 0.5 0.120971 -0 -1 -0 255 255 255 255 
0.120569 0.5 0.220853 -0.00741612 -0.997718 -0.0671043 255 255 255 255 
0.44971 0.5 0.0812631 -0 -1 -0 255 255 255 255 
0.36113 0.540406 0.117743 -0.373273 -0.270633 -0.88737 255 255 255 255 
0.359978 0.5 0.156899 -0 -1 -0 255 255 255 255 
0.280309 0.5 0.0341747 -0 -1 -0 255 255 255 255 
0.362731 0.5 0.0421706 -0 -1 -0 255 255 255 255 
0.00182577 0.5 0.157754 0.373212 -0.911801 0.171265 255 255 255 255 
0.0435217 0.5 0.228169 0.305998 -0.78475 0.539011 255 255 255 255 
0.0059279 0.5 0.0340177 0.511546 -0.828168 0.229039 255 255 255 255 
0.401217 0.5 0.0194776 -0.00780412 -0.998902 0.0461901 255 255 255 255 
0.151284 0.5 0.0336981 -0 -1 -0 255 255 255 255 
0.0190861 0.5 0.23513 -0 -1 -0 255 255 255 255 
0.269697 0.573333 0.284139 -0.450613 -0.799141 -0.397897 255 255 255 255 
0.431897 0.5 0.120962 -0 -1 -0 255 255 255 255 
0.16052 0.5 0.229353 -0.0339885 -0.999262 -0.0179134 255 255 255 255 
0.483864 0.5 0.140544 0.0934345 -0.995469 0.0176723 255 255 255 255 
0.400411 0.5 0.216787 0.127862 -0.973418 0.190025 255 255 255 255 
0.443615 0.5 0.110568 -0 -1 -0 255 255 255 255 
0.0882481 0.5 0.151797 -0 -1 -0 255 255 255 255 
0.034934 0.5 0.184279 0.00909839 -0.958675 0.284357 255 255 255 255 
0.371943 0.5 0.198832 -0 -1 -0 168 0 0 255 
0.452899 0.5 0.186884 -0 -1 -0 255 255 255 255 
0.223974 0.510801 0.259011 0.0497671 -0.988179 -0.145002 255 255 255 255 
0.330106 0.5 0.10955 -0.145236 -0.987273 0.0648003 255 255 255 255 
0.0644555 0.5 0.115661 -0 -1 -0 255 255 255 255 
0.258056 0.5 0.10787 -0.033447 -0.999026 -0.0287948 255 255 255 255 
0.298719 0.5 0.138571 -0 -1 -0 255 255 255 255 
0.186 0.5 0.247541 -0 -1 -0 255 255 255 255 
0.198752 0.5 0.0589487 -0 -1 -0 255 255 255 255 
0.237005 0.5 0.179636 -0 -1 -0 255 255 255 255 
0.0766038 0.5 0.110435 -0 -1 -0 255 255 255 255 
0.140361 0.5 0.238508 0.010345 -0.998837 -0.0470973 255 255 255 255 
0.206114 0.551669 0.093657 -0.241014 -0.335669 -0.910625 168 0 0 255 
0.19815 0.5 0.121346 -0 -1 -0 255 255 255 255 
0.387569 0.5 0.116542 -0 -1 -0 255 255 255 255 
0.11125 0.5 0.129756 -0 -1 -0 255 255 255 255 
0.130749 0.5 0.0320741 -0 -1 -0 255 255 255 255 
0.13328 0.5 0.171961 -0 -1 -0 255 255 255 255 
0.0605685 0.5 0.231693 -0 -1 -0 168 0 0 255 
0.0630218 0.5 0.062512 -0 -1 -0 255 255 255 255 
0.194708 0.5 0.160539 0.175474 -0.93545 0.306825 255 255 255 255 
0.340763 0.5 0.246713 0.0910656 -0.908383 -0.408101 255 255 255 255 
0.098677 0.500458 0.0138398 -0.130517 -0.974506 0.182493 255 255 255 255 
0.488509 0.5 0.148486 -0.219366 -0.973625 -0.0627031 255 255 255 255 
0.144661 0.5 0.112757 -0 -1 -0 255 255 255 255 
0.156243 0.5 0.110632 -0 -1 -0 255 255 255 255 
0.446384 0.5 0.148302 -0 -1 -0 255 255 255 255 
0.19828 0.5 0.0504143 -0 -1 -0 255 255 255 255 
0.380579 0.5 0.198215 -0 -1 -0 255 255 255 255 
0.343521 0.5 0.134074 -0.210222 -0.968631 0.132514 255 255 255 255 
0.129515 0.5 0.227386 -0.11021 -0.990826 -0.0782114 255 255 255 255 
0.0276597 0.5 0.130132 -0 -1 -0 255 255 255 255 
0.0684134 0.549494 0.129964 0.717927 -0.503696 0.48049 168 0 0 255 
0.104185 0.5 0.0397439 -0.0146376 -0.996776 -0.07889 255 255 255 255 
0.124325 0.5 0.0836036 -0 -1 -0 255 255 255 255 
0.204512 0.5 0.159517 -0 -1 -0 255 255 255 255 
0.488284 0.5 0.0226375 -0.535837 -0.8441 -0.0193393 255 255 255 255 
0.31246 0.5 0.0432517 -0 -1 -0 255 255 255 255 
0.0720386 0.5 0.150485 -0.142491 -0.981622 0.126945 255 255 255 255 
0.383475 0.5 0.10835 -0 -1 -0 255 255 255 255 
0.0264841 0.5 0.0198589 0.0074267 -0.994934 0.100256 255 255 255 255 
0.437964 0.5 0.236434 -0.0713069 -0.993053 -0.0936017 255 255 255 255 
0.397085 0.560764 0.128886 0.709777 0.0903994 -0.698602 255 255 255 255 
0.0736971 0.5 0.10845 -0 -1 -0 255 255 255 255 
0.0326745 0.5 0.208609 -0.0128036 -0.992548 -0.121181 168 0 0 255 
0.485049 0.5 0.0810946 -0.0544426 -0.998302 0.0207301 255 255 255 255 
0.371989 0.5 0.00635424 0.012424 -0.998154 0.0594471 255 255 255 255 
0.422453 0.5 0.195454 -0 -1 -0 255 255 255 255 
0.173648 0.5 0.0133193 -0.00153091 -0.993405 0.11465 255 255 255 255 
0.470396 0.5 0.148987 -0 -1 -0 255 255 255 255 
0.193846 0.5 0.0874541 -0 -1 -0 255 255 255 255 
0.117007 0.5 0.0910651 -0 -1 -0 255 255 255 255 
0.280116 0.559933 0.274666 -0.473888 -0.808138 -0.349776 255 255 255 255 
0.268634 0.5 0.146111 -0 -1 -0 255 255 255 255 
0.230437 0.5 0.0760541 -0 -1 -0 255 255 255 255 
0.00892125 0.5 0.128461 0.33198 -0.942867 0.0281198 255 255 255 255 
0.191826 0.5 0.223443 -0 -1 -0 255 255 255 255 
0.22979 0.5 0.0140737 -0.0191076 -0.997491 0.0681665 255 255 255 255 
0.0831295 0.5 0.151743 -0 -1 -0 255 255 255 255 
0.245048 0.5 0.057902 -0 -1 -0 255 255 255 255 
0.220705 0.5 0.115048 -0 -1 -0 255 255 255 255 
0.277993 0.5 0.0463472 -0 -1 -0 255 255 255 255 
0.249356 0.506551 0.106774 -0.00281363 -0.99738 -0.0722851 255 255 255 255 
0.483603 0.5 0.208227 -0.0202125 -0.999796 -0.000473559 255 255 255 255 
0.227085 0.5 0.227 -0 -1 -0 255 255 255 255 
0.214427 0.5 0.210465 -0 -1 -0 255 255 255 255 
0.128907 0.5 0.165717 -0 -1 -0 255 255 255 255 
0.103061 0.5 0.174545 -0 -1 -0 255 255 255 255 
0.260902 0.5 0.185847 -0 -1 -0 255 255 255 255 
0.141312 0.5 0.245669 -0 -1 -0 255 255 255 255 
0.0238028 0.5 0.0751168 -0 -1 -0 255 255 255 255 
0.24826 0.5 0.107814 0.0468878 -0.998879 -0.00656737 255 255 255 255 
0.114119 0.517 0.256024 0.923927 -0.355166 0.142183 255 255 255 255 
0.243776 0.5 0.0901243 0.170662 -0.981136 0.0908093 255 255 255 255 
0.281536 0.5 0.244412 0.0117069 -0.752486 -0.658504 255 255 255 255 
0.296053 0.5 0.00112066 0.00475176 -0.936285 0.351209 255 255 255 255 
0.218921 0.5 0.037023 -0 -1 -0 255 255 255 255 
0.0949357 0.5 0.230863 -0 -1 -0 255 255 255 255 
0.274492 0.5 0.0392693 -0 -1 -0 255 255 255 255 
0.37818 0.5 0.000788626 -0.444335 -0.759089 0.475763 255 255 255 255 
0.0325379 0.5 0.0463034 -0 -1 -0 255 255 255 255 
0.422508 0.5 0.0807227 -0 -1 -0 255 255 255 255 
0.430257 0.506216 0.0190008 -0.00836705 -0.999724 0.0219486 255 255 255 255 
0.010536 0.5 0.0924714 -0 -1 -0 255 255 255 255 
0.397263 0.5 0.0759242 0.0213486 -0.999393 -0.0275299 255 255 255 255 
0.176281 0.5 0.210533 -0 -1 -0 255 255 255 255 
0.302082 0.5 0.212271 0.0314816 -0.997769 0.0588652 255 255 255 255 
0.136695 0.5 0.199601 0.00108945 -0.999162 0.0409231 255 255 255 255 
0.402591 0.5 0.190235 -0 -1 -0 255 255 255 255 
0.0794497 0.5 0.0920637 -0 -1 -0 255 255 255 255 
0.369295 0.5 0.187751 -0 -1 -0 255 255 255 255 
0.186369 0.5 0.044108 -0 -1 -0 255 255 255 255 
0.467801 0.518253 0.158905 -0.393638 -0.819418 0.416657 255 255 255 255 
0.0499422 0.5 0.11202 -0 -1 -0 255 255 255 255 
0.359843 0.5 0.214061 -0 -1 -0 255 255 255 255 
0.225618 0.5 0.196191 -0 -1 -0 255 255 255 255 
0.0207286 0.5 0.0740628 -0 -1 -0 255 255 255 255 
0.0538263 0.5 0.222385 -0 -1 -0 255 255 255 255 
0.173694 0.5 0.0321812 -0 -1 -0 255 255 255 255 
0.129712 0.5 0.0354788 -0 -1 -0 255 255 255 255 
0.216211 0.5 0.152997 -0 -1 -0 255 255 255 255 
0.492024 0.5 0.00914635 -0.382458 -0.914204 0.134006 255 255 255 255 
0.29927 0.568735 0.133094 -0.143301 -0.80271 0.578897 255 255 255 255 
0.417494 0.5 0.0665631 0.0906674 -0.988315 -0.122526 255 255 255 255 
0.00918929 0.5 0.248472 0.597653 -0.801598 -0.0158761 255 255 255 255 
0.317254 0.5 0.189242 -0 -1 -0 255 255 255 255 
0.372446 0.5 0.00181113 0.345307 -0.930216 0.12434 255 255 255 255 
0.4667 0.5 0.160997 -0.393638 -0.819418 0.416657 255 255 255 255 
0.284927 0.5 0.00832121 0.0716786 -0.982763 0.170407 255 255 255 255 
0.0460345 0.5 0.0723848 -0 -1 -0 255 255 255 255 
0.444764 0.5 0.135826 -0 -1 -0 255 255 255 255 
0.0371506 0.5 0.232746 -0 -1 -0 255 255 255 255 
0.426134 0.506356 0.0518446 0.0120252 -0.999922 -0.00348582 255 255 255 255 
0.410262 0.5 0.0467362 0.10934 -0.992235 -0.0592874 255 255 255 255 
0.155339 0.5 0.0199873 -0 -1 -0 255 255 255 255 
0.16443 0.5 0.185775 -0 -1 -0 255 255 255 255 
0.345968 0.5 0.0782269 -0 -1 -0 255 255 255 255 
0.389843 0.5 0.0382518 -0 -1 -0 255 255 255 255 
0.285172 0.5 0.153668 -0 -1 -0 255 255 255 255 
0.20963 0.5 0.147181 -0 -1 -0 255 255 255 255 
0.30428 0.5 0.0134417 0.00126845 -0.995177 0.0980871 255 255 255 255 
0.172846 0.5 0.0883628 -0 -1 -0 255 255 255 255 
0.0849012 0.554395 0.124169 0.235589 -0.291753 0.927027 168 0 0 255 
0.49872 0.5 0.157716 -0.746575 -0.652936 0.127672 168 0 0 255 
0.156189 0.5 0.022377 -0 -1 -0 255 255 255 255 
0.460202 0.5 0.0504763 -0 -1 -0 255 255 255 255 
0.316406 0.5 0.248676 -0.208189 -0.695886 -0.687314 255 255 255 255 
0.0664455 0.5 0.118092 -0 -1 -0 255 255 255 255 
0.0883294 0.5 0.238354 -0 -1 -0 255 255 255 255 
0.329657 0.5 0.121834 -0.0912691 -0.995825 -0.00176117 255 255 255 255 
0.0166825 0.5 0.247044 0.089708 -0.995627 0.0260505 255 255 255 255 
0.115218 0.5 0.181325 -0 -1 -0 255 255 255 255 
0.198969 0.548429 0.0509592 0.730707 0.387147 -0.562304 255 255 255 255 
0.439154 0.5 0.217856 -0.0304328 -0.997663 -0.0611702 255 255 255 255 
0.312397 0.5 0.0743921 -0 -1 -0 255 255 255 255 
0.230074 0.5 0.0583385 -0 -1 -0 255 255 255 255 
0.175668 0.5 0.20146 -0 -1 -0 255 255 255 255 
0.293403 0.5 0.103087 -0 -1 -0 255 255 255 255 
0.0424662 0.5 0.146061 -0 -1 -0 255 255 255 255 
0.0216058 0.5 0.0993274 -0 -1 -0 255 255 255 255 
0.336876 0.5 0.240904 0.116356 -0.939241 -0.322936 255 255 255 255 
0.299607 0.5 0.0766413 -0 -1 -0 255 255 255 255 
0.508894 0.529734 0.21276 -0.756193 0.21035 -0.619617 255 255 255 255 
0.389467 0.5 0.0337448 -0 -1 -0 255 255 255 255 
0.342761 0.5 0.109562 -0 -1 -0 255 255 255 255 
0.311158 0.5 0.179722 -0 -1 -0 255 255 255 255 
0.213211 0.5 0.213188 -0 -1 -0 255 255 255 255 
0.222094 0.5 0.181876 -0 -1 -0 255 255 255 255 
0.431437 0.5 0.0806242 -0 -1 -0 255 255 255 255 
0.299464 0.5 0.121917 -0 -1 -0 255 255 255 255 
0.310033 0.5 0.0147694 -0.0653298 -0.989753 0.12697 255 255 255 255 
0.360512 0.5 0.24285 -0.13551 -0.967927 -0.211554 168 0 0 255 
0.454022 0.521563 0.0985203 0.638621 -0.767432 0.0566593 255 255 255 255 
0.191874 0.5 0.237463 -0 -1 -0 255 255 255 255 
0.446037 0.5 0.10674 -0 -1 -0 255 255 255 255 
0.17358 0.5 0.141456 -0 -1 -0 255 255 255 255 
0.195287 0.5 0.236594 -0 -1 -0 255 255 255 255 
0.436195 0.5 0.0872238 -0 -1 -0 255 255 255 255 
0.33924 0.5 0.162831 -0 -1 -0 255 255 255 255 
0.241937 0.5 0.0910006 0.170662 -0.981136 0.0908093 255 255 255 255 
0.0447862 0.5 0.0265477 -0 -1 -0 255 255 255 255 
0.0414445 0.5 0.128999 -0 -1 -0 255 255 255 255 
0.488182 0.50871 0.140479 0.0934345 -0.995469 0.0176723 168 0 0 255 
0.121748 0.5 0.205455 -0.114579 -0.988412 0.0995692 255 255 255 255 
0.424787 0.5 0.210606 0.276743 -0.959176 0.0582558 255 255 255 255 
0.154744 0.5 0.11741 -0 -1 -0 255 255 255 255 
0.450752 0.5 0.0076281 -0.158812 -0.984154 0.078861 255 255 255 255 
0.22052 0.5 0.191605 -0 -1 -0 255 255 255 255 
0.169171 0.5 0.206197 -0 -1 -0 255 255 255 255 
0.358136 0.5 0.0576036 -0 -1 -0 255 255 255 255 
0.125873 0.5 0.0158578 0.178629 -0.966943 0.181971 255 255 255 255 
0.39812 0.5 0.16058 -0 -1 -0 255 255 255 255 
0.0339661 0.529063 0.196221 0.90185 -0.413602 0.124902 168 0 0 255 
0.495608 0.5 0.172072 -0.364641 -0.910629 -0.194401 168 0 0 255 
0.159978 0.5 0.118773 -0 -1 -0 255 255 255 255 
0.0261445 0.5 0.102382 -0 -1 -0 255 255 255 255 
0.290641 0.5 0.0337945 -0 -1 -0 255 255 255 255 
0.462761 0.5 0.135057 -0 -1 -0 255 255 255 255 
0.331127 0.5 0.0422547 -0 -1 -0 255 255 255 255 
0.181023 0.5 0.127957 -0 -1 -0 255 255 255 255 
0.0057221 0.5 0.167884 0.395819 -0.902334 -0.17065 255 255 255 255 
0.490734 0.5 0.228237 -0.578793 -0.810367 0.091124 255 255 255 255 
0.400141 0.549118 0.154745 0.977548 -0.205644 0.0459282 255 255 255 255 
0.339684 0.5 0.010097 0.136741 -0.928608 0.344949 168 0 0 255 
0.123648 0.5 0.0989099 -0 -1 -0 255 255 255 255 
0.135401 0.5 0.124761 -0 -1 -0 255 255 255 255 
0.229536 0.5 0.0167606 -0.00243313 -0.99834 0.0575514 255 255 255 255 
0.0706822 0.5 0.117219 -0 -1 -0 255 255 255 255 
0.367837 0.5 0.0331452 -0 -1 -0 255 255 255 255 
0.0785818 0.5 0.0139073 0.0470201 -0.969903 0.238908 255 255 255 255 
0.303836 0.5 0.0523631 -0 -1 -0 255 255 255 255 
0.232579 0.5 0.0472386 -0 -1 -0 255 255 255 255 
0.238617 0.566302 0.163972 -0.135533 -0.405767 0.903872 168 0 0 255 
0.36459 0.5 0.0017213 0.105956 -0.836012 0.538384 168 0 0 255 
0.279849 0.5 0.0228065 -0 -1 -0 255 255 255 255 
0.259357 0.5 0.142786 -0 -1 -0 255 255 255 255 
0.38138 0.5 0.125046 -0 -1 -0 255 255 255 255 
0.242045 0.5 0.116202 0.259468 -0.964628 -0.046577 255 255 255 255 
0.461345 0.5 0.0408643 -0 -1 -0 255 255 255 255 
0.252597 0.5 0.0424967 -0 -1 -0 255 255 255 255 
0.279548 0.5 0.193999 -0 -1 -0 255 255 255 255 
0.334515 0.5 0.00454199 0.0565734 -0.92579 0.373781 255 255 255 255 
0.435684 0.514164 0.216763 -0.0304328 -0.997663 -0.0611702 255 255 255 255 
0.243522 0.5 0.144678 -0 -1 -0 255 255 255 255 
0.471487 0.5 0.161052 -0.393638 -0.819418 0.416658 255 255 255 255 
0.317171 0.5 0.137662 0.110876 -0.993834 0.000733655 255 255 255 255 
0.42683 0.5 0.0248747 0.0279858 -0.999551 -0.0107527 255 255 255 255 
0.369801 0.5 0.0495728 -0 -1 -0 255 255 255 255 
0.245089 0.5 0.117196 0.259468 -0.964628 -0.046577 255 255 255 255 
0.102588 0.5 0.0124689 -0.130517 -0.974506 0.182493 255 255 255 255 
0.280004 0.5 0.180973 -0 -1 -0 255 255 255 255 
0.310509 0.5 0.0806921 -0 -1 -0 255 255 255 255 
0.147176 0.535139 0.0614158 0.668694 -0.725929 -0.16086 255 255 255 255 
0.393788 0.5 0.0366909 -0 -1 -0 255 255 255 255 
0.134282 0.5 0.0731925 -0 -1 -0 255 255 255 255 
0.158375 0.5 0.206915 -0.028433 -0.999194 0.0283511 255 255 255 255 
0.0343834 0.5 0.246445 -0 -1 -0 255 255 255 255 
0.422915 0.5 0.227952 -0.123976 -0.986876 0.103468 255 255 255 255 
0.398087 0.5 0.0832186 -0 -1 -0 255 255 255 255 
0.245259 0.5 0.184787 -0 -1 -0 255 255 255 255 
0.488541 0.5 0.0312152 -0.73813 -0.671624 -0.0639115 255 255 255 255 
0.144898 0.5 0.207686 -0.00563309 -0.999048 0.0432668 255 255 255 255 
0.178571 0.566391 0.0737405 0.489516 -0.829811 -0.267933 255 255 255 255 
0.0145173 0.5 0.178634 0.255448 -0.943306 -0.211945 168 0 0 255 
0.249089 0.5 0.0585527 -0 -1 -0 255 255 255 255 
0.382207 0.5 0.0145468 -0 -1 -0 255 255 255 255 
0.479051 0.5 0.0963578 0.000734675 -0.999997 -0.00232852 255 255 255 255 
0.190478 0.5 0.0455436 -0 -1 -0 255 255 255 255 
0.245269 0.5 0.0421327 -0 -1 -0 255 255 255 255 
0.164469 0.5 0.189776 -0 -1 -0 255 255 255 255 
0.23065 0.5 0.161422 -0 -1 -0 255 255 255 255 
0.293382 0.5 0.132517 -0 -1 -0 255 255 255 255 
0.323754 0.50802 0.116168 -0.0877938 -0.995745 0.0279966 168 0 0 255 
0.220937 0.5 0.10691 -0 -1 -0 255 255 255 255 
0.382734 0.5 0.233098 0.136439 -0.987974 -0.07275 255 255 255 255 
0.0833953 0.5 0.185638 -0 -1 -0 255 255 255 255 
0.0286267 0.5 0.114147 -0 -1 -0 255 255 255 255 
0.286647 0.5 0.0704033 -0 -1 -0 255 255 255 255 
0.242992 0.5 0.150582 -0 -1 -0 255 255 255 255 
0.498075 0.5 0.246041 -0.956858 -0.209268 -0.201569 168 0 0 255 
0.418269 0.5 0.190141 -0 -1 -0 255 255 255 255 
0.0211748 0.5 0.19866 0.172333 -0.984469 -0.0335063 255 255 255 255 
0.114343 0.541345 0.147171 -0.882488 -0.297697 0.36413 255 255 255 255 
0.488407 0.5 0.159133 -0.260387 -0.96416 0.0509282 255 255 255 255 
0.295918 0.5 0.0764382 -0 -1 -0 255 255 255 255 
0.197818 0.5 0.0132842 0.0235303 -0.995456 0.0922718 255 255 255 255 
0.475721 0.5 0.2456 0.0122729 -0.226343 -0.97397 255 255 255 255 
0.291602 0.5 0.145727 -0 -1 -0 255 255 255 255 
0.207496 0.5 0.00626955 -0.0224329 -0.990237 0.137579 168 0 0 255 
0.00527576 0.5 0.0451151 0.924774 -0.378017 0.0435472 255 255 255 255 
0.478736 0.5 0.0443355 -0 -1 -0 255 255 255 255 
0.461505 0.5 0.00368111 -0.15425 -0.961905 0.225711 255 255 255 255 
0.331592 0.514628 0.138704 -0.0868063 -0.994709 0.0549361 255 255 255 255 
0.148169 0.5 0.0299779 -0 -1 -0 255 255 255 255 
0.0493162 0.5 0.073122 -0 -1 -0 255 255 255 255 
0.052037 0.5 0.233793 0.305998 -0.78475 0.539011 255 255 255 255 
0.0265261 0.5 0.0366059 0.0883254 -0.994997 0.0466791 255 255 255 255 
0.364906 0.5 0.0497618 -0 -1 -0 255 255 255 255 
0.284864 0.5 0.176657 -0 -1 -0 255 255 255 255 
0.41779 0.5 0.0403912 0.051371 -0.997729 0.0435569 255 255 255 255 
0.00618983 0.5 0.057804 0.777134 -0.619932 -0.108386 255 255 255 255 
0.107351 0.5 0.240955 0.0928266 -0.980915 0.170846 255 255 255 255 
0.117778 0.51097 0.210447 -0.0254125 -0.998875 0.0400364 255 255 255 255 
0.273365 0.5 0.157152 -0 -1 -0 255 255 255 255 
0.411492 0.5 0.13932 -0 -1 -0 255 255 255 255 
0.404534 0.5 0.195114 -0 -1 -0 255 255 255 255 
0.367312 0.5 0.18302 -0 -1 -0 255 255 255 255 
0.39759 0.5 0.0921381 -0 -1 -0 255 255 255 255 
0.114192 0.5 0.0228793 -0 -1 -0 255 255 255 255 
0.244232 0.5 0.081754 -0 -1 -0 255 255 255 255 
0.192003 0.5 0.148134 -0 -1 -0 255 255 255 255 
0.131094 0.5 0.109264 -0 -1 -0 255 255 255 255 
0.400042 0.530561 0.278561 -0.0518247 0.4243 -0.904037 255 255 255 255 
0.318052 0.5 0.0771725 -0 -1 -0 255 255 255 255 
0.349313 0.5 0.117921 -0 -1 -0 255 255 255 255 
0.235127 0.5 0.177751 -0 -1 -0 255 255 255 255 
0.351451 0.5 0.171239 -0 -1 -0 255 255 255 255 
0.337413 0.5 0.229129 -0.105363 -0.978043 -0.179805 255 255 255 255 
0.241431 0.5 0.0553893 -0 -1 -0 255 255 255 255 
0.272563 0.5 0.0764617 -0 -1 -0 255 255 255 255 
0.38942 0.5 0.0885486 -0 -1 -0 255 255 255 255 
0.043151 0.5 0.128366 -0 -1 -0 255 255 255 255 
0.100647 0.55751 0.277881 0.761954 -0.166959 0.62574 255 255 255 255 
0.441008 0.5 0.0786645 -0 -1 -0 255 255 255 255 
0.486499 0.5 0.0926199 -0.0183643 -0.999802 -0.00759904 255 255 255 255 
0.320837 0.5 0.089251 -0 -1 -0 255 255 255 255 
0.481509 0.5 0.225965 -0 -1 -0 255 255 255 255 
0.397031 0.5 0.175495 -0 -1 -0 255 255 255 255 
0.447931 0.5 0.107542 -0 -1 -0 255 255 255 255 
0.00533438 0.5 0.148622 0.51535 -0.837949 0.179602 255 255 255 255 
0.450926 0.5 0.120231 -0 -1 -0 255 255 255 255 
0.152747 0.5 0.151188 -0 -1 -0 255 255 255 255 
0.117505 0.534565 0.279645 0.975965 0.18517 -0.114907 255 255 255 255 
0.260635 0.5 0.162186 -0 -1 -0 255 255 255 255 
0.100939 0.5 0.0165986 -0.130517 -0.974506 0.182493 255 255 255 255 
0.477295 0.5 0.245179 0.0122729 -0.226343 -0.97397 255 255 255 255 
0.210294 0.5 0.010223 -0.0274159 -0.993996 0.105923 255 255 255 255 
0.247091 0.5 0.126716 -0 -1 -0 255 255 255 255 
0.461187 0.5 0.0940491 0.00913659 -0.999925 -0.00811017 255 255 255 255 
0.41076 0.5 0.223843 0.0830079 -0.98776 0.132056 255 255 255 255 
0.373338 0.5 0.115799 -0 -1 -0 255 255 255 255 
0.126188 0.5 0.177423 -0 -1 -0 255 255 255 255 
0.24339 0.559862 0.0714716 -0.850144 -0.474235 0.228813 168 0 0 255 
0.205836 0.5 0.0657294 -0 -1 -0 255 255 255 255 
0.238302 0.5 0.105585 0.176621 -0.984206 0.0119624 255 255 255 255 
0.428703 0.5 0.0946139 -0 -1 -0 255 255 255 255 
0.451632 0.5 0.0407249 -0.00177218 -0.999999 0.000143141 255 255 255 255 
0.491604 0.5 0.0172862 -0.531682 -0.845421 -0.0507724 255 255 255 255 
0.0716104 0.5 0.126119 -0 -1 -0 255 255 255 255 
0.358944 0.5 0.0862748 -0 -1 -0 255 255 255 255 
0.285436 0.5 0.168119 -0 -1 -0 255 255 255 255 
0.162908 0.5 0.247865 -0 -1 -0 255 255 255 255 
0.401577 0.544892 0.249891 0.197664 0.66488 -0.720322 255 255 255 255 
0.249162 0.5 0.158936 -0 -1 -0 255 255 255 255 
0.0980973 0.5 0.0799611 -0 -1 -0 255 255 255 255 
0.265558 0.5 0.235718 0.350996 -0.819389 -0.453215 255 255 255 255 
0.39152 0.5 0.195873 -0 -1 -0 255 255 255 255 
0.326282 0.5 0.037524 -0 -1 -0 255 255 255 255 
0.414965 0.5 0.0160589 0.114784 -0.993362 0.00749481 255 255 255 255 
0.206507 0.5 0.0766335 -0 -1 -0 255 255 255 255 
0.243288 0.5 0.0676048 -0 -1 -0 255 255 255 255 
0.342495 0.5 0.0974602 -0 -1 -0 255 255 255 255 
0.272824 0.556164 0.223213 0.916818 -0.381876 -0.11669 255 255 255 255 
0.229493 0.5 0.144135 -0 -1 -0 255 255 255 255 
0.0863374 0.5 0.0442183 -0.142797 -0.964737 0.221114 255 255 255 255 
0.46082 0.5 0.185887 -0 -1 -0 255 255 255 255 
0.424675 0.5 0.0618641 0.0630174 -0.990839 -0.119447 255 255 255 255 
0.367504 0.5 0.14068 -0 -1 -0 255 255 255 255 
0.0337271 0.5 0.0583328 -0 -1 -0 255 255 255 255 
0.0992313 0.5 0.0659122 -0.12347 -0.987567 -0.0972926 255 255 255 255 
0.276588 0.5 0.182394 -0 -1 -0 255 255 255 255 
0.10326 0.5 0.0840537 -0 -1 -0 255 255 255 255 
0.260219 0.503684 0.218455 -0.0108194 -0.999941 0.0011992 255 255 255 255 
0.243155 0.5 0.0857497 -0 -1 -0 255 255 255 255 
0.461659 0.5 0.224831 -0 -1 -0 255 255 255 255 
0.324766 0.5 0.102474 -0.0841324 -0.975259 0.204431 255 255 255 255 
0.0848719 0.5 0.0836306 -0 -1 -0 255 255 255 255 
0.399868 0.5 0.150766 -0 -1 -0 255 255 255 255 
0.00135992 0.5 0.0646803 0.868622 -0.490425 -0.0705701 255 255 255 255 
0.0898013 0.5 0.0438487 -0.142797 -0.964737 0.221114 255 255 255 255 
0.217797 0.5 0.0253104 -0 -1 -0 255 255 255 255 
0.459471 0.5 0.0712362 -0 -1 -0 255 255 255 255 
0.186341 0.511992 0.175479 0.0307608 -0.998315 0.049208 168 0 0 255 
0.423832 0.5 0.104038 -0 -1 -0 255 255 255 255 
0.44364 0.5 0.0115317 -0.0340048 -0.999056 0.027021 255 255 255 255 
0.3399 0.5 0.110114 -0 -1 -0 255 255 255 255 
0.387852 0.5 0.22158 -0.011253 -0.957539 0.288084 255 255 255 255 
0.388335 0.5 0.0721935 0.153315 -0.93323 -0.324926 255 255 255 255 
0.372702 0.5 0.0657453 -0 -1 -0 255 255 255 255 
0.315886 0.5 0.16718 -0 -1 -0 255 255 255 255 
0.0811529 0.5 0.0703264 -0 -1 -0 255 255 255 255 
0.0393085 0.5 0.0830124 -0 -1 -0 255 255 255 255 
0.314996 0.507082 0.22667 0.0144409 -0.999886 0.00448366 255 255 255 255 
0.467556 0.5 0.154637 -0.794877 -0.497364 0.347564 255 255 255 255 
0.0685369 0.5 0.0286787 -0 -1 -0 255 255 255 255 
0.396971 0.5 0.143167 -0 -1 -0 255 255 255 255 
0.107978 0.5 0.178221 -0 -1 -0 255 255 255 255 
0.428806 0.5 0.141164 -0 -1 -0 255 255 255 255 
0.183416 0.5 0.176319 0.0566889 -0.997688 0.037473 168 0 0 255 
0.490403 0.5 0.063528 -0.177227 -0.932211 -0.315553 255 255 255 255 
0.375702 0.5 0.165152 -0 -1 -0 255 255 255 255 
0.347284 0.5 0.131777 -0 -1 -0 255 255 255 255 
0.314772 0.541308 0.159118 -0.720741 -0.308633 -0.620708 255 255 255 255 
0.407941 0.5 0.0730828 -0.000860024 -0.999738 -0.0228643 255 255 255 255 
0.36711 0.5 0.111914 -0 -1 -0 255 255 255 255 
0.480527 0.5 0.224131 -0 -1 -0 255 255 255 255 
0.36448 0.5 0.00991758 0.00615234 -0.998037 0.0623211 255 255 255 255 
0.114287 0.5 0.0861971 -0 -1 -0 255 255 255 255 
0.459012 0.5 0.0409216 -0.00177218 -0.999999 0.000143141 255 255 255 255 
0.481668 0.5 0.0137742 0.351468 -0.920788 0.169175 255 255 255 255 
0.139201 0.5 0.18932 -0 -1 -0 255 255 255 255 
0.313882 0.5 0.123589 0.00184596 -0.998148 -0.0608087 255 255 255 255 
0.281782 0.546701 0.168046 -0.197384 -0.155318 -0.967944 255 255 255 255 
0.029506 0.5 0.209248 -0.0313728 -0.992565 -0.117602 168 0 0 255 
0.0953274 0.5 0.00995463 0.00531743 -0.946818 0.321726 255 255 255 255 
0.0455526 0.5 0.235515 -0 -1 -0 255 255 255 255 
0.350213 0.5 0.196418 -0 -1 -0 255 255 255 255 
0.234584 0.5 0.0618385 -0 -1 -0 255 255 255 255 
0.128455 0.5 0.0712625 -0 -1 -0 255 255 255 255 
0.269843 0.5 0.247782 0.152422 -0.461131 -0.874143 255 255 255 255 
0.366353 0.5 0.125185 -0 -1 -0 255 255 255 255 
0.443827 0.5 0.115416 -0 -1 -0 255 255 255 255 
0.297682 0.527478 0.0565348 -0.66673 -0.613216 -0.4236 255 255 255 255 
0.403227 0.5 0.114608 -0 -1 -0 255 255 255 255 
0.139958 0.5 0.192447 -0.019077 -0.997836 0.0629214 255 255 255 255 
0.256764 0.5 0.139579 -0 -1 -0 255 255 255 255 
0.263534 0.5 0.0353235 -0 -1 -0 255 255 255 255 
0.0263371 0.5 0.249307 -0 -1 -0 255 255 255 255 
0.313336 0.5 0.0279215 -0 -1 -0 255 255 255 255 
0.417111 0.5 0.204332 -0 -1 -0 255 255 255 255 
0.0757524 0.5 0.231332 -0 -1 -0 255 255 255 255 
0.379693 0.5 0.212983 -0 -1 -0 255 255 255 255 
0.393234 0.537734 0.0948726 -0.825935 -0.386998 -0.409956 255 255 255 255 
0.0496424 0.5 0.241978 -0 -1 -0 255 255 255 255 
0.256801 0.5 0.159743 -0 -1 -0 255 255 255 255 
0.47952 0.5 0.061577 -0 -1 -0 255 255 255 255 
0.0698542 0.5 0.211673 -0 -1 -0 255 255 255 255 
0.353987 0.5 0.170029 -0 -1 -0 255 255 255 255 
0.481461 0.5 0.128607 -0.0161886 -0.993918 0.108927 255 255 255 255 
0.0692745 0.5 0.0607095 -0 -1 -0 255 255 255 255 
0.142109 0.5 0.163019 -0 -1 -0 255 255 255 255 
0.400577 0.5 0.202821 -0 -1 -0 255 255 255 255 
0.411032 0.514346 0.227803 -0.141827 -0.957215 -0.25224 255 255 255 255 
0.404257 0.5 0.105011 -0 -1 -0 255 255 255 255 
0.482758 0.5 0.160684 -0 -1 -0 255 255 255 255 
0.118685 0.5 0.0292549 -0 -1 -0 255 255 255 255 
0.284032 0.5 0.249189 0.0307677 -0.736742 -0.675474 168 0 0 255 
0.484475 0.5 0.069766 -0 -1 -0 255 255 255 255 
0.112654 0.5 0.0170588 -0.0055414 -0.999965 -0.00625909 255 255 255 255 
0.123487 0.5 0.184728 -0 -1 -0 255 255 255 255 
0.353603 0.5 0.0515034 -0 -1 -0 255 255 255 255 
0.49261 0.5 0.211728 -0.34423 -0.934605 -0.0895528 255 255 255 255 
0.0508809 0.524527 0.197825 0.151278 0.0274917 0.988109 168 0 0 255 
0.263515 0.5 0.00390764 0.282833 -0.901121 0.328611 168 0 0 255 
0.103811 0.5 0.166395 -0 -1 -0 255 255 255 255 
0.129234 0.5 0.12296 -0 -1 -0 255 255 255 255 
0.158829 0.5 0.0149058 0.0142366 -0.992688 0.11987 255 255 255 255 
0.151562 0.5 0.0277573 -0 -1 -0 255 255 255 255 
0.456726 0.5 0.0279096 -0.00139114 -0.999999 0.000530762 255 255 255 255 
0.265536 0.5 0.219742 -0.0114383 -0.999928 -0.00370804 168 0 0 255 
0.377187 0.5 0.192111 -0 -1 -0 255 255 255 255 
0.497993 0.5 0.0806097 -0.62915 -0.774849 0.0614805 168 0 0 255 
0.389362 0.506763 0.247997 0.223058 -0.956696 -0.187024 168 0 0 255 
0.300751 0.5 0.247627 -0.118929 -0.956637 -0.265898 255 255 255 255 
0.0165861 0.5 0.212119 0.50904 -0.856483 0.0855287 255 255 255 255 
0.364709 0.5 0.185094 -0 -1 -0 255 255 255 255 
0.0272452 0.5 0.178659 -0 -1 -0 255 255 255 255 
0.293646 0.5 0.0267996 -0 -1 -0 255 255 255 255 
0.203915 0.5 0.0285804 -0 -1 -0 255 255 255 255 
0.0614144 0.5 0.153863 -0.00328192 -0.996658 0.0816219 255 255 255 255 
0.389951 0.5 0.0953243 -0 -1 -0 255 255 255 255 
0.0536454 0.5 0.0243897 -0 -1 -0 255 255 255 255 
0.245798 0.525338 0.127942 -0.984729 -0.168965 0.0419535 168 0 0 255 
0.104294 0.5 0.088593 -0 -1 -0 255 255 255 255 
0.261027 0.5 0.184915 -0 -1 -0 255 255 255 255 
0.116669 0.5 0.069107 -0 -1 -0 255 255 255 255 
0.254052 0.5 0.0573313 -0 -1 -0 255 255 255 255 
0.299433 0.5 0.0683254 -0 -1 -0 255 255 255 255 
0.0971311 0.5 0.0500923 -0.198137 -0.971481 0.130254 255 255 255 255 
0.131904 0.5 0.0568586 -0 -1 -0 255 255 255 255 
0.0244228 0.5 0.248306 -0 -1 -0 255 255 255 255 
0.483906 0.5 0.025834 -0.139074 -0.980473 0.139038 255 255 255 255 
0.415436 0.561504 0.20028 -0.970016 -0.237696 -0.0507011 168 0 0 255 
0.105267 0.5 0.0289235 -0.00841437 -0.999943 -0.00655116 255 255 255 255 
0.334712 0.5 0.0833408 -0 -1 -0 255 255 255 255 
0.365573 0.5 0.112331 -0 -1 -0 255 255 255 255 
0.35733 0.5 0.209609 0.264662 -0.945936 -0.187509 255 255 255 255 
0.273442 0.5 0.0388952 -0 -1 -0 255 255 255 255 
0.124426 0.5 0.188868 -0 -1 -0 255 255 255 255 
0.254976 0.5 0.192726 -0 -1 -0 255 255 255 255 
0.247566 0.5 0.185823 -0 -1 -0 255 255 255 255 
0.0236663 0.5 0.000809046 0.21765 -0.352323 0.910218 255 255 255 255 
0.540474 0.554165 0.215715 -0.695543 0.481571 -0.533207 255 255 255 255 
0.138269 0.5 0.0417198 -0 -1 -0 255 255 255 255 
0.423284 0.5 0.135087 -0 -1 -0 255 255 255 255 
0.197157 0.5 0.223853 -0 -1 -0 255 255 255 255 
0.266786 0.5 0.0905314 -0 -1 -0 255 255 255 255 
0.499375 0.5 0.0603589 -0.540301 -0.540302 -0.645096 255 255 255 255 
0.107843 0.5 0.459578 -0 -1 -0 255 255 255 255 
0.0252372 0.5 0.480648 0.0654531 -0.966856 -0.246791 255 255 255 255 
0.0992687 0.5 0.409446 -0 -1 -0 255 255 255 255 
0.192902 0.5 0.459272 -0 -1 -0 255 255 255 255 
0.27219 0.541975 0.305301 -0.45985 -0.179352 -0.869696 255 255 255 255 
0.225191 0.5 0.32204 -0 -1 -0 255 255 255 255 
0.0655068 0.5 0.439155 0.031024 -0.999492 -0.00731857 255 255 255 255 
0.104066 0.5 0.258139 0.341734 -0.936123 0.0830166 168 0 0 255 
0.246331 0.5 0.451709 -0.477361 -0.851079 0.21861 255 255 255 255 
0.130611 0.5 0.417854 0.0667195 -0.997772 -0.000431948 255 255 255 255 
0.0882607 0.5 0.419692 0.010331 -0.998802 0.0478423 255 255 255 255 
0.105987 0.5 0.327991 -0 -1 -0 255 255 255 255 
0.159181 0.5 0.309912 -0 -1 -0 255 255 255 255 
0.0615453 0.5 0.285144 -0 -1 -0 255 255 255 255 
0.0738989 0.542356 0.33846 0.00237755 -0.329493 0.944155 168 0 0 255 
0.117633 0.5 0.389385 -0.0682302 -0.990607 -0.118504 255 255 255 255 
0.00568111 0.5 0.39287 0.0799897 -0.996737 -0.010848 255 255 255 255 
0.120034 0.5 0.35495 -0 -1 -0 255 255 255 255 
0.052316 0.5 0.312936 -0 -1 -0 255 255 255 255 
0.0642217 0.5 0.28253 -0 -1 -0 255 255 255 255 
0.0762613 0.5 0.289413 -0 -1 -0 255 255 255 255 
0.10457 0.5 0.391768 -0.00101597 -0.997794 -0.0663795 255 255 255 255 
0.228568 0.5 0.458636 0.0821097 -0.996623 7.58318e-05 255 255 255 255 
0.149907 0.5 0.474899 -0.0857283 -0.994238 -0.0643552 255 255 255 255 
0.199674 0.53933 0.319848 -0.932892 0.358145 0.0380178 168 0 0 255 
0.142753 0.5 0.498605 0.232588 -0.89408 -0.382785 255 255 255 255 
0.20021 0.5 0.49874 -0.112749 -0.795651 -0.59517 168 0 0 255 
0.0765963 0.5 0.359391 0.132301 -0.989315 -0.0612628 255 255 255 255 
0.0586524 0.5 0.388142 -0 -1 -0 255 255 255 255 
0.144535 0.5 0.340195 -0 -1 -0 255 255 255 255 
0.184245 0.5 0.262168 -0 -1 -0 255 255 255 255 
0.22958 0.5 0.439926 0.0379739 -0.998678 -0.0346357 255 255 255 255 
0.155038 0.5 0.349614 0.0153324 -0.999621 0.0228833 255 255 255 255 
0.0448761 0.5 0.457354 -0 -1 -0 255 255 255 255 
0.164507 0.501958 0.361055 0.00059957 -0.999906 0.0136793 255 255 255 255 
0.239884 0.5 0.488811 -0.330507 -0.899814 -0.28478 255 255 255 255 
0.14851 0.5 0.344455 -0 -1 -0 255 255 255 255 
0.130579 0.5 0.377078 -0 -1 -0 255 255 255 255 
0.0530905 0.5 0.280486 -0 -1 -0 255 255 255 255 
0.101977 0.5 0.463435 -0 -1 -0 255 255 255 255 
0.0610044 0.5 0.49473 0.0751915 -0.830511 -0.551903 168 0 0 255 
0.212041 0.5 0.261214 0.104059 -0.990408 -0.0909066 255 255 255 255 
0.243471 0.5 0.288637 -0.632869 -0.762263 0.13577 168 0 0 255 
0.120606 0.5 0.302123 0.061261 -0.98354 0.169987 168 0 0 255 
0.216226 0.539447 0.304589 -0.884216 -0.126094 0.449736 168 0 0 255 
0.142318 0.5 0.361024 0.0348369 -0.999128 0.0230359 255 255 255 255 
0.0273095 0.5 0.371898 -0 -1 -0 255 255 255 255 
0.0509501 0.5 0.432347 -0.0466556 -0.988573 -0.143342 255 255 255 255 
0.221513 0.5 0.345826 -0 -1 -0 255 255 255 255 
0.139701 0.5 0.384063 0.291249 -0.956437 0.0200517 255 255 255 255 
0.204924 0.5 0.379586 -0 -1 -0 255 255 255 255 
0.122874 0.5 0.353434 -0 -1 -0 255 255 255 255 
0.22404 0.5 0.253453 0.093506 -0.987192 -0.129264 255 255 255 255 
0.230512 0.5 0.277131 -0.0429684 -0.977854 -0.20483 255 255 255 255 
0.0446434 0.510704 0.343194 -0.00951925 -0.998489 -0.0541261 255 255 255 255 
0.240566 0.5 0.344943 -0.400377 -0.867291 -0.295811 168 0 0 255 
0.0772198 0.5 0.452607 0.0243811 -0.998703 -0.0447081 255 255 255 255 
0.106158 0.5 0.32069 -0 -1 -0 255 255 255 255 
0.241244 0.5 0.476764 -0.236038 -0.960587 -0.146827 255 255 255 255 
0.122813 0.5 0.418022 -0 -1 -0 255 255 255 255 
0.241905 0.5 0.265131 -0.645782 -0.760864 0.0636498 168 0 0 255 
0.0290462 0.5 0.269215 -0.0284477 -0.992975 0.114857 255 255 255 255 
0.13703 0.5 0.329996 -0 -1 -0 255 255 255 255 
0.201562 0.5 0.358543 -0 -1 -0 255 255 255 255 
0.232344 0.556522 0.397785 -0.737298 -0.353511 -0.575692 168 0 0 255 
0.242605 0.5 0.380746 -0.698336 -0.698335 -0.15702 255 255 255 255 
0.220849 0.5 0.365479 -0 -1 -0 255 255 255 255 
0.234181 0.5 0.444889 -0.0282695 -0.998096 -0.0548164 255 255 255 255 
0.118932 0.5 0.464693 -0 -1 -0 255 255 255 255 
0.22202 0.5 0.402871 -0 -1 -0 255 255 255 255 
0.0471823 0.5 0.462586 -0 -1 -0 255 255 255 255 
0.247814 0.5 0.374402 -0.968435 0.0787182 -0.236509 255 255 255 255 
0.165193 0.5 0.353972 0.00059957 -0.999906 0.0136793 255 255 255 255 
0.195092 0.5 0.406436 -0 -1 -0 255 255 255 255 
0.128661 0.547925 0.365831 -0.55112 0.190592 -0.812368 255 255 255 255 
0.0744587 0.5 0.322641 -0 -1 -0 255 255 255 255 
0.0830373 0.5 0.353505 0.0659933 -0.996826 0.0445389 255 255 255 255 
0.0918557 0.5 0.470067 -0 -1 -0 255 255 255 255 
0.183501 0.5 0.293418 -0 -1 -0 255 255 255 255 
0.0786097 0.5 0.359324 0.132301 -0.989315 -0.0612628 255 255 255 255 
0.134681 0.5 0.321215 -0 -1 -0 255 255 255 255 
0.24007 0.5 0.35553 -0.498803 -0.866675 -0.00838932 168 0 0 255 
0.186694 0.5 0.474251 -0 -1 -0 255 255 255 255 
0.0504191 0.5 0.305625 -0 -1 -0 255 255 255 255 
0.237621 0.548677 0.321116 0.136204 -0.990565 -0.0151442 255 255 255 255 
0.208496 0.5 0.486126 -0.0497076 -0.995556 -0.079986 255 255 255 255 
0.235025 0.5 0.45631 -0.0181211 -0.98009 0.197725 255 255 255 255 
0.110528 0.5 0.400218 -0 -1 -0 255 255 255 255 
0.0602824 0.5 0.30562 -0 -1 -0 255 255 255 255 
0.0566538 0.5 0.391018 -0 -1 -0 255 255 255 255 
0.123526 0.5 0.381112 -0.0566953 -0.992656 -0.106868 255 255 255 255 
0.213659 0.5 0.456564 -0 -1 -0 255 255 255 255 
0.234617 0.5 0.305515 -0.0814535 -0.996671 -0.00341069 255 255 255 255 
0.176631 0.5 0.418118 -0.121621 -0.992525 0.0101784 255 255 255 255 
0.106363 0.507431 0.262671 0.273421 -0.938068 -0.212764 168 0 0 255 
0.0274421 0.5 0.483614 0.0654531 -0.966856 -0.246791 255 255 255 255 
0.0764553 0.5 0.267512 -0 -1 -0 255 255 255 255 
0.0891439 0.5 0.263149 0.0891057 -0.99541 -0.0349129 255 255 255 255 
0.241763 0.5 0.389563 -0.510741 -0.857166 -0.0664067 255 255 255 255 
0.0687744 0.5 0.430706 -0.0890046 -0.992637 -0.0821629 255 255 255 255 
0.162002 0.5 0.277271 -0 -1 -0 255 255 255 255 
0.166832 0.5 0.397027 -0 -1 -0 255 255 255 255 
0.233581 0.5 0.27736 -0.313803 -0.945093 0.0912505 255 255 255 255 
0.0472444 0.5 0.293863 -0 -1 -0 255 255 255 255 
0.0896156 0.506635 0.360533 0.0820671 -0.988252 -0.128927 255 255 255 255 
0.184881 0.5 0.456507 -0 -1 -0 255 255 255 255 
0.235011 0.5 0.398541 -0.110077 -0.993528 -0.0280052 255 255 255 255 
0.16307 0.5 0.469628 -0 -1 -0 255 255 255 255 
0.204056 0.5 0.339701 -0 -1 -0 255 255 255 255 
0.137746 0.5 0.302989 -0 -1 -0 255 255 255 255 
0.0949417 0.5 0.415188 -0 -1 -0 255 255 255 255 
0.0366026 0.5 0.421397 0.0303067 -0.997418 0.065108 255 255 255 255 
0.1827 0.5 0.375746 -0.0233326 -0.999617 -0.0148578 255 255 255 255 
0.184546 0.5 0.424463 -0 -1 -0 255 255 255 255 
0.0337426 0.518433 0.271754 -0.0626663 -0.994095 0.0885905 255 255 255 255 
0.105169 0.5 0.427311 -0 -1 -0 255 255 255 255 
0.030591 0.5 0.272002 -0.0626663 -0.994095 0.0885905 255 255 255 255 
0.0743383 0.5 0.264172 -0 -1 -0 255 255 255 255 
0.0493618 0.5 0.371583 -0 -1 -0 255 255 255 255 
0.0580351 0.5 0.382342 -0 -1 -0 255 255 255 255 
0.225481 0.5 0.492917 -0.0153367 -0.903795 -0.42769 255 255 255 255 
0.0888492 0.5 0.460491 -0 -1 -0 255 255 255 255 
0.141457 0.5 0.25192 -0 -1 -0 255 255 255 255 
0.180119 0.5 0.345513 -0.0161685 -0.999798 0.0119661 255 255 255 255 
0.112514 0.520894 0.338759 0.0343803 -0.998954 0.030136 255 255 255 255 
0.148502 0.5 0.436563 0.0270299 -0.996675 -0.0768601 255 255 255 255 
0.233054 0.5 0.435105 -0.0200716 -0.999469 0.0256642 255 255 255 255 
0.10796 0.5 0.415754 -0 -1 -0 255 255 255 255 
0.0608512 0.5 0.292506 -0 -1 -0 255 255 255 255 
0.0902177 0.5 0.326161 -0 -1 -0 255 255 255 255 
0.0458261 0.5 0.445387 -0 -1 -0 255 255 255 255 
0.00347207 0.5 0.326417 0.922315 -0.385656 -0.0245907 255 255 255 255 
0.217389 0.5 0.32781 -0 -1 -0 255 255 255 255 
0.090589 0.5 0.266751 0.0891057 -0.99541 -0.0349129 255 255 255 255 
0.262391 0.562998 0.461622 0.595096 -0.775184 0.212017 255 255 255 255 
0.149093 0.5 0.424874 0.0391791 -0.996165 -0.0782288 255 255 255 255 
0.141541 0.5 0.487942 -0.0552541 -0.988555 -0.140376 255 255 255 255 
0.135365 0.5 0.282998 -0 -1 -0 255 255 255 255 
0.239862 0.5 0.315485 -0.132672 -0.761686 -0.634218 168 0 0 255 
0.128512 0.5 0.331483 -0 -1 -0 255 255 255 255 
0.13335 0.5 0.277014 -0 -1 -0 255 255 255 255 
0.0180453 0.5 0.366404 0.265233 -0.817936 0.510521 255 255 255 255 
0.212119 0.5 0.376005 -0 -1 -0 255 255 255 255 
0.0321587 0.5 0.27297 -0.0432682 -0.984061 -0.172486 255 255 255 255 
0.205057 0.536546 0.408922 0.876272 -0.358365 0.32206 255 255 255 255 
0.0991304 0.5 0.464337 -0 -1 -0 255 255 255 255 
0.0677636 0.5 0.352602 0.127283 -0.991423 0.0296698 255 255 255 255 
0.0407538 0.5 0.285152 -0 -1 -0 255 255 255 255 
0.180413 0.5 0.381343 -0 -1 -0 255 255 255 255 
0.0519031 0.5 0.379806 -0 -1 -0 255 255 255 255 
0.029967 0.5 0.450996 -0.011367 -0.999671 0.0229825 255 255 255 255 
0.0546798 0.5 0.421508 -0.0183595 -0.999187 -0.0358915 255 255 255 255 
0.188938 0.5 0.440045 -0 -1 -0 255 255 255 255 
0.204506 0.5 0.4288 -0 -1 -0 255 255 255 255 
0.0669699 0.56144 0.394458 0.906023 -0.293902 0.304539 255 255 255 255 
0.0102826 0.5 0.38888 0.0492455 -0.998729 -0.0107107 255 255 255 255 
0.110031 0.5 0.278328 0.031695 -0.995981 -0.0837676 255 255 255 255 
0.00528409 0.5 0.32215 0.927818 -0.339265 -0.155094 255 255 255 255 
0.154333 0.5 0.287443 -0 -1 -0 255 255 255 255 
0.0951196 0.5 0.322843 -0 -1 -0 255 255 255 255 
0.159819 0.5 0.44425 0.00759698 -0.993576 -0.11291 255 255 255 255 
0.0371799 0.5 0.477583 -0.036068 -0.998687 -0.0363783 255 255 255 255 
0.0468524 0.5 0.327934 -0.000960675 -0.991109 0.133049 255 255 255 255 
0.0127351 0.5 0.477265 0.0488546 -0.997779 -0.0452754 255 255 255 255 
0.231154 0.521877 0.336515 -0.526992 -0.271785 0.80524 255 255 255 255 
0.107071 0.5 0.489244 -0.396306 -0.909791 -0.123379 168 0 0 255 
0.0156342 0.5 0.411751 0.307736 -0.949368 -0.0632348 255 255 255 255 
0.160751 0.5 0.454572 -0 -1 -0 255 255 255 255 
0.101796 0.5 0.365257 -0.00240572 -0.999808 0.019456 168 0 0 255 
0.133372 0.5 0.357326 -0 -1 -0 255 255 255 255 
0.198275 0.5 0.393655 -0 -1 -0 255 255 255 255 
0.246205 0.5 0.308306 -0.614698 -0.614698 0.494259 168 0 0 255 
0.171983 0.5 0.25149 -0 -1 -0 255 255 255 255 
0.130456 0.5 0.326316 -0 -1 -0 255 255 255 255 
0.082353 0.543421 0.518996 0.643907 0.469719 -0.603944 168 0 0 255 
0.149159 0.5 0.448752 -0 -1 -0 255 255 255 255 
0.169825 0.5 0.436339 -0 -1 -0 255 255 255 255 
0.176334 0.5 0.466678 -0 -1 -0 255 255 255 255 
0.0142726 0.5 0.439069 0.449922 -0.872326 -0.191357 255 255 255 255 
0.193943 0.5 0.473549 -0 -1 -0 255 255 255 255 
0.00370758 0.5 0.301014 0.86886 -0.48429 0.102693 255 255 255 255 
0.212793 0.5 0.269342 0.126611 -0.983834 -0.126653 255 255 255 255 
0.212765 0.5 0.373544 -0 -1 -0 255 255 255 255 
0.223914 0.5 0.314561 -0 -1 -0 255 255 255 255 
0.253935 0.515134 0.37242 -0.978363 0.070031 -0.194683 255 255 255 255 
0.171887 0.5 0.437076 -0 -1 -0 255 255 255 255 
0.0009412 0.5 0.418092 0.701415 -0.711627 -0.0400549 255 255 255 255 
0.245382 0.5 0.422924 -0.64574 -0.726639 -0.234555 168 0 0 255 
0.169582 0.5 0.375838 -0.00806266 -0.999866 -0.0142479 255 255 255 255 
0.24924 0.5 0.458514 -0.595415 -0.789576 0.148499 255 255 255 255 
0.101414 0.5 0.398399 -0 -1 -0 255 255 255 255 
0.157266 0.5 0.271239 -0 -1 -0 255 255 255 255 
0.0847375 0.5 0.3336 -0 -1 -0 255 255 255 255 
